-36.9638 34.995 392.782 -0.821764 -0.503081 0.267608 
-37.7013 34.6337 396.419 -0.954666 0.0303639 -0.296125 
-38.0217 34.3209 400.892 -0.988637 0.149407 0.0165527 
-37.1746 34.2209 406.425 -0.919738 -0.389914 -0.0452732 
-35.1185 34.4773 411.759 -0.845528 -0.151845 0.511884 
-31.503 35.0852 417.988 -0.881803 -0.203057 0.425667 
-27.4093 35.8227 424.412 -0.783493 -0.0351182 0.620407 
-24.1577 41.6599 369.61 -0.615718 0.165311 -0.770431 
-30.1017 39.6447 375.965 -0.743584 0.160748 -0.649032 
-33.8415 38.2055 382.102 -0.909192 -0.374892 -0.181182 
-36.0699 37.2173 388.122 -0.872743 0.257463 -0.414768 
-37.6385 36.4205 394.082 -0.926891 0.0491138 -0.372102 
-38.2411 35.9769 399.044 -0.800012 -0.237639 -0.550916 
-37.7507 35.8349 404.054 -0.962416 -0.23379 -0.138191 
-36.6038 35.885 409.134 -0.788178 -0.195394 0.583606 
-34.0325 36.3014 414.379 -0.907261 -0.15019 0.392836 
-30.8129 36.8793 419.946 -0.737276 -0.125584 0.663817 
-26.1774 37.8209 425.96 -0.745513 -0.0697998 0.662826 
-25.4896 42.9687 371.007 -0.614496 0.225085 -0.75613 
-30.1332 41.3725 376.113 -0.724958 -0.0227765 -0.688417 
-31.8869 40.8581 378.361 -0.661848 -0.485052 -0.57156 
-32.8405 40.6194 379.907 -0.910752 0.0874173 -0.403595 
-33.3022 40.5914 380.767 -0.928665 -0.168881 -0.330243 
-32.8274 40.966 380.105 -0.879969 0.247179 -0.405657 
-32.4798 41.3302 379.104 -0.87213 0.146199 -0.466921 
-31.6004 41.8802 377.753 -0.583485 -0.137714 -0.800362 
-29.96 42.6957 375.87 -0.612053 -0.0340192 -0.790085 
-27.7663 43.714 373.44 -0.682488 0.233299 -0.692663 
-24.5263 45.0659 370.767 -0.559007 0.288922 -0.777197 
-26.9523 39.8057 425.417 -0.694118 -0.113879 0.710797 
-30.2257 39.4313 421.128 -0.721985 -0.160568 0.67302 
-32.9493 39.1801 417.136 -0.888165 0.0989097 0.448755 
-35.8022 39.0102 411.858 -0.94959 -0.00857218 0.313376 
-37.4545 39.1619 406.745 -0.944511 -0.0820277 0.318073 
-37.8022 40.3853 393.948 -0.933091 0.354986 0.0576692 
-36.2073 41.505 388.674 -0.914353 0.162969 -0.370676 
-33.7663 42.9243 382.673 -0.679137 0.295722 -0.671804 
-30.1337 44.7296 376.555 -0.755557 0.451088 -0.475029 
-22.579 47.6602 370.329 -0.545916 0.30866 -0.778913 
-29.9193 41.2566 421.697 -0.813811 0.0742762 0.576363 
-34.7357 40.7006 414.126 -0.841447 -0.126043 0.525433 
-37.6107 40.6931 406.727 -0.997634 0.027507 0.0630054 
-37.1356 42.3776 391.448 -0.993266 -0.115608 -0.00757321 
-34.3679 44.0473 383.97 -0.97768 -0.0437313 -0.205498 
-29.0257 46.5189 375.969 -0.884484 0.167777 -0.43536 
-29.2906 42.651 422.248 -0.77019 0.274091 0.575917 
-35.188 41.8771 413.203 -0.873373 0.0250488 0.486407 
-38.016 41.9677 404.824 -0.939669 -0.0543445 0.337742 
-36.7265 43.8421 390.233 -0.989323 0.0259358 -0.143416 
-33.4552 45.6368 383.065 -0.786524 0.0847471 -0.611716 
-28.7136 47.8709 376.06 -0.947496 0.196532 -0.252243 
-28.621 44.055 422.8 -0.73323 0.246476 0.633737 
-34.1768 43.2536 415.108 -0.90601 0.0680535 0.417749 
-37.1132 43.1332 408.507 -0.962695 0.0877492 0.255965 
-37.9668 44.0413 397.472 -0.949688 0.294418 -0.106819 
-37.219 44.8924 392.35 -0.908098 0.371825 -0.192624 
-35.6386 45.967 387.882 -0.805941 0.24475 -0.539033 
-33.082 47.3463 383.2 -0.970528 0.165102 0.175547 
-31.3715 48.3277 379.985 -0.762599 0.293835 -0.576285 
-28.7534 49.5788 376.891 -0.743793 0.27716 -0.608239 
-25.3308 51.057 374.07 -0.57265 0.324726 -0.752745 
-27.3889 46.3511 423.5 -0.671453 0.185476 0.71746 
-31.1457 45.7564 419.342 -0.709062 -0.0131793 0.705023 
-33.85 45.4656 415.365 -0.847202 0.0875871 0.524001 
-36.1914 45.3431 410.635 -0.967579 0.0964873 0.233412 
-37.4469 45.5482 406.044 -0.985546 -0.00327619 0.169374 
-37.8273 46.0968 400.53 -0.783332 0.512233 -0.352148 
-37.2787 46.8857 395.562 -0.850942 0.435209 -0.294093 
-35.966 47.9439 390.259 -0.986989 0.141806 -0.0757863 
-33.5349 49.3254 385.254 -0.877406 0.339209 -0.339259 
-30.0234 51.119 379.48 -0.660834 0.299125 -0.688347 
-28.4675 48.1574 421.876 -0.724202 0.312383 0.614775 
-34.0063 47.2559 414.691 -0.835256 0.029578 0.549065 
-36.8689 47.1654 407.747 -0.949926 0.0859455 0.300424 
-37.2673 47.8361 400.708 -0.969066 0.244171 -0.0359278 
-35.8897 49.165 392.567 -0.973257 0.182068 -0.140076 
-32.3195 51.2135 384.363 -0.912432 0.368427 0.178128 
-23.3528 54.9599 375.859 -0.525097 0.630018 -0.572145 
-34.4086 48.4593 413.77 -0.874269 0.259108 0.410508 
-37.1877 48.6119 404.162 -0.932774 0.239586 0.269315 
-35.9024 50.0832 394.175 -0.862921 0.501692 0.0606024 
-32.0035 52.4423 383.777 -0.853451 0.437819 -0.282729 
-31.7453 49.8796 417.336 -0.827791 0.209291 0.520538 
-36.5161 49.4938 406.64 -0.947333 0.165035 0.274453 
-35.7505 50.8773 395.774 -0.736387 0.567833 -0.367831 
-31.7354 53.3595 384.532 -0.928146 0.353843 -0.115502 
-33.6949 50.4581 414.022 -0.769816 0.300214 0.563253 
-36.4354 50.9383 400.686 -0.997983 0.0440419 -0.0457071 
-32.598 53.5332 387.478 -0.90212 0.429406 0.0423195 
-34.408 51.0901 412.339 -0.88731 0.316025 0.33587 
-35.4193 52.2675 397.263 -0.914724 0.321521 -0.244752 
-27.9675 56.2923 381.732 -0.633379 0.602127 -0.486081 
-35.2548 51.771 409.64 -0.906946 0.196786 0.372457 
-35.1335 53.0705 397.341 -0.867791 0.435794 -0.238792 
-30.5368 55.8097 385.573 -0.937662 0.238262 0.253023 
-30.786 53.2733 417.245 -0.76806 0.319201 0.555153 
-35.6796 52.895 405.48 -0.914247 0.364014 -0.177892 
-33.1392 54.9423 393.77 -0.669001 0.729922 -0.140187 
-19.0939 60.9843 379.522 -0.388522 -0.891771 0.23194 
-31.6835 54.032 415.543 -0.792147 0.267547 0.548563 
-35.4365 54.0549 403.389 -0.804189 0.37118 0.464226 
-30.6932 56.8765 391.185 -0.710556 0.615869 -0.340316 
-14.2608 64.3501 370.749 -0.310797 -0.63268 -0.70931 
-35.0036 54.5788 407.206 -0.931875 0.359555 -0.0482718 
-32.5603 56.72 394.104 -0.961074 0.0502016 -0.271693 
-19.7011 63.0685 373.478 -0.461622 -0.327333 -0.824474 
-33.7999 55.3415 411.27 -0.801596 0.313833 0.508874 
-34.331 56.4224 399.032 -0.976574 -0.196636 -0.0873979 
-19.9357 63.0306 380.79 -0.600824 -0.560351 0.570103 
-34.5401 56.2767 406.025 -0.981494 0.182605 -0.0576706 
-29.2314 59.6072 390.551 -0.825771 0.161598 -0.54036 
-32.0968 57.0805 412.39 -0.708199 -0.171393 0.684893 
-32.6562 58.5215 395.987 -0.750047 0.59918 -0.280022 
-15.6393 66.791 370.475 -0.414458 -0.0734978 -0.907096 
-33.7552 58.4846 398.379 -0.887493 0.41078 -0.208845 
-32.5228 58.0968 411.44 -0.813482 0.00745673 0.581543 
-25.3869 62.6738 389.205 -0.661885 0.683333 -0.308163 
-33.7629 59.2291 400.165 -0.719812 0.587941 -0.369048 
-34.1035 59.0993 404.432 -0.765552 0.639722 -0.0684597 
-33.6889 59.7726 402.624 -0.907806 0.383439 -0.16989 
-21.4303 66.6156 377.58 -0.983139 0.181682 0.0207126 
-32.2516 60.8786 407.939 -0.689091 0.697906 0.195144 
8.55703 -52.6784 386.129 -0.65274 -0.20256 0.73 
34.8964 -48.6722 394.833 -0.364792 -0.68126 0.634674 
6.86989 -47.9496 385.267 -0.103501 0.0708506 0.992103 
35.2884 -47.0421 395.582 -0.169507 -0.621107 0.765176 
32.7971 -46.3278 393.095 -0.910982 -0.406601 -0.0691916 
36.422 -45.9372 396.158 -0.338945 0.0941707 0.936081 
-17.5248 -46.6988 382.583 -0.442387 -0.540687 0.715508 
-19.997 -46.1733 381.21 -0.785354 -0.484078 0.385861 
32.6381 -44.2638 394.84 -0.683147 0.0556662 0.728156 
36.944 -43.7032 396.839 -0.169822 0.0329177 0.984925 
0.571117 -44.6802 392.58 -0.313575 -0.941301 0.124992 
-17.7078 -44.3283 383.145 -0.56875 -0.192676 0.799625 
-1.05966 -44.1216 393.222 -0.184064 -0.941779 0.281376 
8.34668 -44.0824 400.738 -0.222633 -0.737957 0.637067 
-5.83983 -42.7101 382.382 -0.408244 -0.903316 -0.131744 
2.44869 -43.5802 398.122 -0.36134 -0.812396 0.457652 
-18.7906 -42.9735 383.11 -0.385233 0.125549 0.914239 
2.36077 -43.1731 399.189 -0.414073 -0.871998 0.261079 
-7.62607 -42.0771 385.525 -0.276031 -0.961144 0.00284589 
7.56393 -42.7748 402.959 -0.210353 -0.913062 0.349386 
-5.50984 -42.3476 394.031 -0.262273 -0.899902 0.348409 
-21.6756 -41.6303 380.18 -0.89417 0.224326 0.387477 
1.63304 -42.1721 400.886 -0.170914 -0.831186 0.529073 
-8.9761 -41.4556 390.433 -0.511022 -0.854343 0.0946233 
-22.0829 -40.556 376.522 -0.965673 -0.202107 -0.163182 
-0.394649 -41.5676 400.69 -0.31419 -0.846659 0.429481 
-9.73088 -40.9193 391.475 -0.762222 -0.646832 0.0250026 
-22.1238 -40.1964 379.447 -0.989471 -0.0781008 0.121851 
3.7521 -41.0269 404.196 -0.266776 -0.760528 0.591969 
-6.16592 -40.6999 397.675 -0.454125 -0.822262 0.343009 
-11.972 -39.7787 387.877 -0.652833 -0.732179 -0.194224 
-22.5276 -39.2562 378.633 -0.915817 0.260783 0.305405 
5.31915 -40.2382 405.857 -0.23858 -0.609217 0.756263 
-3.83619 -40.0645 400.959 -0.428286 -0.810076 0.400434 
-10.4554 -39.5336 394.242 -0.615885 -0.773541 0.149397 
-13.1823 -38.2702 383.166 -0.720682 -0.691572 -0.0484405 
-22.593 -37.9169 376.159 -0.925701 -0.114168 -0.360616 
5.57593 -39.3259 407.088 -0.280332 -0.856811 0.432769 
-2.74095 -39.1983 403.048 -0.560319 -0.571991 0.599057 
-8.62135 -38.8423 398.263 -0.588718 -0.699323 0.405411 
-13.2691 -38.2169 391.779 -0.359457 -0.894537 0.265695 
-19.3488 -37.4265 382.944 -0.326161 0.581599 0.745226 
-22.8598 -36.6835 375.985 -0.942595 0.00794352 -0.333843 
7.49492 -38.2776 409.615 -0.0863318 -0.769546 0.632729 
2.89563 -38.1875 407.731 -0.108349 -0.784547 0.61053 
0.664716 -38.0336 406.751 -0.349902 -0.767973 0.536457 
-3.35546 -37.8416 404.417 -0.598939 -0.443898 0.666503 
-7.27537 -37.59 401.558 -0.507205 -0.742863 0.436919 
-12.0853 -37.1454 396.494 -0.620538 -0.777554 0.101697 
-16.6313 -35.806 384.159 -0.636935 -0.765065 -0.0948138 
-23.5444 -35.247 376.819 -0.947197 -0.238475 -0.214351 
-1.54803 -36.9714 406.761 -0.347838 -0.703429 0.619835 
-11.0248 -36.5161 399.085 -0.528569 -0.677371 0.511648 
-19.8641 -34.8834 381.826 -0.252145 0.550744 0.795678 
4.67821 -36.3594 410.864 -0.260633 -0.668458 0.696588 
-6.01948 -36.1344 404.454 -0.540214 -0.67344 0.504626 
-14.231 -35.5135 396.08 -0.524273 -0.66177 0.535909 
-23.4646 -33.8537 378.355 -0.742432 0.277705 0.609651 
0.555793 -35.6161 409.548 -0.265629 -0.815075 0.514873 
-8.85971 -35.2647 402.749 -0.633525 -0.655844 0.410506 
-19.2401 -33.8418 386.544 -0.540767 -0.831312 0.128419 
-23.31 -32.269 372.696 -0.704961 -0.70917 -0.0104064 
-2.10426 -34.8569 408.799 -0.393002 -0.573394 0.718866 
-10.3427 -34.4647 402.342 -0.305055 -0.731242 0.610103 
-19.6338 -33.1501 387.757 -0.800454 -0.572041 0.179004 
-23.7446 -32.0392 377.699 -0.892164 0.000641742 0.451712 
2.37297 -34.0929 412.153 -0.278858 -0.58645 0.76047 
-5.77198 -33.881 407.16 -0.392425 -0.694723 0.602796 
-12.229 -33.4588 401.398 -0.630257 -0.602982 0.489069 
-20.1231 -32.256 388.569 -0.59493 -0.788185 0.157552 
-22.1713 -31.2358 380.657 -0.66825 -0.741701 -0.0576344 
-24.6047 -30.4386 374.258 -0.771421 -0.514173 0.374882 
5.74035 -32.9023 414.273 -0.00487055 -0.647388 0.762145 
0.747842 -32.8505 412.311 -0.220068 -0.631832 0.743209 
-2.93314 -32.7384 410.616 -0.397233 -0.433336 0.808966 
-5.39947 -32.5466 408.982 -0.668115 -0.523692 0.528554 
-6.5779 -32.3669 408.239 -0.625508 -0.408128 0.66496 
-4.50588 -32.2718 410.021 -0.374783 -0.764149 0.524989 
-1.13974 -32.1255 412.229 -0.228538 -0.571135 0.7884 
3.74833 -31.8431 414.271 -0.40149 -0.44392 0.801087 
9.64983 -31.4064 415.757 -0.0751161 -0.479096 0.874542 
-26.1422 -28.6603 373.163 -0.85996 -0.400486 0.316353 
-24.4929 -29.0983 378.922 -0.765558 -0.620476 -0.17009 
-23.081 -29.7799 386.34 -0.878868 -0.472221 0.0678139 
-20.5804 -30.2345 392.638 -0.720282 -0.615746 0.319453 
-17.2066 -30.486 397.914 -0.893733 -0.349808 0.280849 
-13.36 -30.6619 402.904 -0.730819 -0.4181 0.539532 
-9.00179 -30.7698 407.604 -0.733584 -0.483967 0.477106 
-3.57958 -30.7548 412.02 -0.379382 -0.595132 0.70844 
3.77025 -30.3898 415.032 -0.472714 -0.671295 0.57088 
13.3133 -29.6508 416.612 0.0625421 -0.517412 0.853448 
-25.6487 -27.5553 377.152 -0.896115 -0.442617 -0.0326745 
-24.1095 -28.3738 385.483 -0.893232 -0.430389 0.13001 
-21.5259 -28.9222 392.456 -0.679587 -0.719136 0.144932 
-17.9657 -29.2311 398.271 -0.493122 -0.630552 0.599362 
-14.5106 -29.3662 402.688 -0.782395 -0.375097 0.497151 
-11.6137 -29.4009 405.983 -0.65727 -0.59934 0.456934 
-8.31835 -29.4141 409.358 -0.372481 -0.632617 0.679009 
-1.32183 -29.3125 414.168 -0.275125 -0.552278 0.786953 
2.05781 -29.0433 415.494 -0.267047 -0.336286 0.903104 
5.24777 -28.7489 416.568 -0.389505 -0.426573 0.816285 
8.5617 -28.4021 417.349 0.0215138 -0.332196 0.942965 
13.3964 -27.8449 417.576 0.0741725 -0.40568 0.911001 
-28.188 -25.1684 372.177 -0.892326 -0.438934 0.105315 
-26.6314 -25.2269 374.917 -0.897737 -0.403724 0.17628 
-26.4785 -25.5948 378.954 -0.927578 -0.365543 0.0773102 
-26.0253 -25.8489 382.333 -0.832458 -0.541672 0.116639 
-25.6049 -26.0342 385.199 -0.839844 -0.541118 0.0430541 
-25.0729 -26.1573 387.659 -0.524399 -0.476219 0.705848 
-24.5919 -26.1089 388.895 -0.894071 -0.363872 0.261217 
-24.3963 -26.0702 389.943 -0.761093 -0.557458 0.331629 
-23.8794 -26.0539 391.382 -0.636007 -0.479391 0.604714 
-23.9698 -25.9049 391.489 -0.483535 -0.675335 0.556881 
-24.2303 -25.7267 391.279 -0.900434 -0.396529 0.178837 
-24.502 -25.4814 390.583 -0.766279 -0.301219 0.567524 
-25.0421 -25.1249 388.928 -0.726522 -0.642301 0.244163 
-25.7226 -24.7276 386.911 -0.660546 -0.505874 0.55477 
-26.9712 -24.0695 382.695 -0.932158 -0.267681 0.243778 
-29.5114 -22.5231 371.4 -0.882585 -0.468724 0.0366415 
13.0628 -25.053 418.73 0.0611368 -0.52511 0.848835 
9.55185 -25.2045 418.754 -0.123266 -0.27842 0.952516 
6.83641 -25.2577 418.593 -0.174321 -0.26414 0.9486 
4.68716 -25.1902 417.972 -0.487451 -0.385771 0.783308 
2.48973 -25.1413 417.408 0.0553347 -0.323602 0.944574 
0.209469 -25.1125 416.934 -0.247629 -0.464493 0.850251 
-2.33263 -25.0454 416.034 -0.196658 -0.522684 0.829534 
-11.0129 -24.8198 410.094 -0.612251 -0.0407235 0.789614 
-13.1499 -24.5408 407.977 -0.458308 -0.393205 0.797085 
-15.1314 -24.2613 405.941 -0.579303 -0.314732 0.751899 
-16.6025 -23.9932 404.342 -0.783122 -0.304112 0.542435 
-18.0086 -23.7129 402.676 -0.867431 -0.232499 0.439896 
-19.3972 -23.4623 401.227 -0.682097 -0.3447 0.644923 
-19.6523 -23.2865 401.017 -0.778023 -0.233206 0.583348 
-19.5599 -23.126 401.17 -0.759093 -0.305076 0.575071 
-18.6486 -23.0507 402.403 -0.833091 -0.288291 0.472068 
-17.1883 -23.0169 404.267 -0.434325 -0.339676 0.834256 
-15.2669 -23.0451 406.845 -0.793355 -0.355964 0.493839 
-12.5855 -23.0599 409.844 -0.806173 -0.421979 0.414751 
-7.574 -23.0449 414.107 -0.40506 -0.0716048 0.911482 
-1.98178 -22.7605 417.003 -0.31902 -0.434064 0.842505 
4.67331 -22.2435 419.085 -0.186063 -0.25296 0.949416 
17.346 -20.8773 419.528 0.139419 -0.291954 0.946216 
-27.6247 -20.1069 384.87 -0.906821 0.0413972 0.419478 
-25.65 -20.8565 392.275 -0.702554 -0.343747 0.623102 
-22.3124 -21.2673 398.302 -0.849928 0.0525098 0.524275 
-18.7568 -21.495 403.307 -0.535636 -0.376983 0.755631 
-14.6841 -21.6632 408.225 -0.631837 -0.53777 0.558199 
-9.38367 -21.7448 413.349 -0.732425 -0.351567 0.583057 
-2.78891 -21.4879 417.126 -0.285022 -0.245839 0.926458 
7.5649 -20.7171 420.081 0.034695 -0.205933 0.977951 
-28.5151 -17.9874 378.408 -0.941115 -0.336586 0.0318132 
-26.4258 -19.4867 390.676 -0.965573 -0.260038 0.00698743 
-21.323 -20.2979 400.473 -0.81969 -0.111339 0.561883 
-13.8307 -20.761 409.546 -0.958087 -0.233678 0.165723 
-2.88658 -20.6619 417.266 -0.466358 -0.39082 0.79358 
15.8667 -19.0025 420.209 0.104167 -0.422901 0.900169 
-27.8254 -18.1657 385.683 -0.997033 -0.0741206 0.0207852 
-21.7146 -19.6125 400.187 -0.536849 -0.0524923 0.842044 
-12.5792 -20.2032 411.162 -0.803165 -0.220231 0.553556 
-0.665857 -19.9371 418.499 -0.27498 -0.273065 0.921858 
-31.7873 -15.9044 371.865 -0.975715 -0.214379 -0.0449734 
-27.5377 -17.8709 388.434 -0.981598 -0.17163 0.0837127 
-20.8 -19.0294 401.442 -0.984659 -0.00898883 0.17426 
-11.8863 -19.605 412.152 -0.669944 -0.268873 0.692014 
2.34138 -19.0538 419.297 -0.280065 -0.146952 0.948667 
-31.1105 -15.6373 375.121 -0.857912 -0.405176 0.315944 
-26.5445 -17.6987 392.382 -0.788746 -0.212585 0.576791 
-18.6258 -18.6762 404.984 -0.70357 -0.283131 0.651787 
-8.58087 -18.996 414.828 -0.538047 -0.137423 0.831637 
5.64666 -18.1722 420.324 -0.112322 -0.309445 0.94426 
-30.1909 -15.1705 377.262 -0.755064 -0.561577 0.338393 
-26.4709 -17.0348 392.583 -0.845485 -0.135967 0.516399 
-19.405 -17.9057 403.906 -0.688226 -0.359281 0.630287 
-9.81242 -18.3448 414.183 -0.703466 -0.279356 0.653525 
5.80453 -17.4813 420.46 -0.361849 0.00781711 0.932204 
-30.2568 -14.5303 377.63 -0.741721 -0.335832 0.580574 
-25.2579 -16.5647 394.769 -0.993524 -0.0632573 0.0943834 
-16.9287 -17.5108 407.37 -0.443599 -0.285451 0.849551 
-5.96384 -17.6323 416.61 -0.397631 0.0458196 0.916401 
13.2509 -16.0509 421.017 0.0581045 -0.222905 0.973107 
-28.9059 -14.5704 383.164 -0.785473 -0.324278 0.527139 
-23.5749 -16.2402 398.157 -0.836123 -0.212461 0.505726 
-14.6105 -17.0831 410.506 -0.566404 -0.13003 0.813805 
-1.52553 -16.8074 418.789 -0.312881 0.0641004 0.947627 
-31.6144 -12.3588 370.945 -0.940509 0.276385 -0.19762 
-27.5768 -14.7766 389.614 -0.83423 -0.239788 0.49655 
-20.0383 -16.0224 403.449 -0.980602 -0.162051 0.110271 
-9.74158 -16.5031 414.455 -0.352895 -0.271857 0.895298 
6.12794 -15.5784 420.764 -0.164728 -0.00995119 0.986289 
-29.912 -12.7979 379.141 -0.512844 -0.287986 0.808736 
-25.0377 -14.9044 396.335 -0.66267 -0.0877895 0.743749 
-16.3722 -15.8066 408.792 -0.791909 -0.132616 0.596065 
-5.00327 -15.7749 417.444 -0.517652 -0.0996748 0.849765 
12.6443 -14.2065 421.204 -0.153225 0.201571 0.967415 
-28.7989 -12.882 384.66 -0.976025 0.121141 0.180829 
-24.2623 -14.3621 397.747 -0.970162 -0.225947 0.0879356 
-16.8685 -15.113 408.38 -0.81963 -0.215666 0.530749 
-7.18883 -15.1857 416.516 -0.65236 -0.255469 0.713556 
9.13907 -13.9133 421.243 -0.0247684 -0.188493 0.981762 
-29.3494 -11.7918 381.946 -0.99107 0.0525714 -0.122539 
-24.6504 -13.5895 396.966 -0.793453 0.08012 0.603334 
-17.1754 -14.4434 408.249 -0.92988 -0.168846 0.326825 
-7.63803 -14.514 416.286 -0.286229 0.118374 0.950821 
7.12813 -13.3998 420.96 -0.246882 -0.016573 0.968904 
-29.6938 -10.8009 380.008 -0.643541 -0.249153 0.723725 
-25.5713 -12.7229 395.279 -0.929138 0.0621797 0.364467 
-17.9673 -13.7144 407.424 -0.739948 -0.0529747 0.670575 
-7.3803 -13.8441 416.55 -0.555401 -0.00906026 0.831533 
7.20556 -12.6861 420.943 -0.140524 0.00146402 0.990076 
-29.7526 -10.1179 380.102 -0.730773 -0.151372 0.665625 
-25.7631 -11.9695 394.772 -0.937226 0.138447 0.320063 
-19.4244 -12.894 405.61 -0.410881 -0.310078 0.857338 
-11.7358 -13.1626 413.54 -0.652183 -0.161101 0.740745 
-0.544432 -12.6392 419.322 -0.223883 -0.157771 0.961761 
-31.2527 -8.20097 371.998 -0.970543 0.0721817 -0.229859 
-27.9843 -10.3726 387.95 -0.992311 -0.11997 0.0304318 
-22.8371 -11.702 400.276 -0.557467 -0.316759 0.767394 
-15.9905 -12.3832 410.01 -0.398906 -0.068314 0.914444 
-6.93928 -12.2689 416.694 -0.366872 0.0845274 0.926423 
5.82215 -11.2257 420.649 -0.249697 -0.0155406 0.968199 
-30.8786 -8.35096 378.285 -0.980839 -0.0222215 0.193551 
-27.2794 -9.94404 390.995 -0.973599 0.205306 -0.0997749 
-22.0307 -10.8998 401.174 -0.930683 -0.00154778 0.365824 
-15.7674 -11.5126 410.075 -0.739877 -0.192329 0.644664 
-6.42478 -11.3935 416.965 -0.581968 0.114574 0.8051 
9.39916 -9.93962 420.848 -0.182298 0.258415 0.948678 
-29.4797 -7.70757 380.661 -0.708888 -0.0862747 0.700025 
-25.3261 -9.51835 394.901 -0.686389 0.183795 0.703626 
-18.5565 -10.5488 406.522 -0.500805 -0.0304817 0.865023 
-8.47573 -10.7359 415.689 -0.673053 0.0987192 0.732976 
7.66527 -9.39838 420.551 -0.0635468 -0.0280019 0.997586 
-29.8539 -6.941 380.061 -0.887676 -0.0296926 0.459511 
-24.7109 -8.89892 395.756 -0.92641 -0.00668045 0.376457 
-17.6829 -9.98121 407.812 -0.843054 0.142465 0.518617 
-8.38563 -10.0294 415.651 -0.722125 0.0404605 0.690578 
4.91633 -8.98432 420.225 -0.255751 0.202098 0.945382 
-30.5404 -5.89898 377.703 -0.93958 0.225469 0.257591 
-26.4199 -7.69071 391.659 -0.848447 0.434344 0.302462 
-20.7311 -8.87901 403.313 -0.867466 0.359734 0.343647 
-12.1426 -9.34509 412.994 -0.574861 0.0355798 0.817477 
0.714173 -8.5899 418.933 -0.238334 0.194008 0.951608 
-30.0311 -3.95324 371.212 -0.92117 0.36771 -0.127415 
-27.1924 -6.65955 389.255 -0.894081 0.0130828 0.447714 
-21.2236 -8.08984 402.413 -0.660085 0.0456591 0.749802 
-13.5603 -8.67208 412.064 -0.5972 -0.0298803 0.801536 
-2.72773 -8.19707 418.152 -0.267699 0.19873 0.942785 
12.8634 -6.44493 420.653 -0.124768 0.207408 0.970265 
-28.4391 -4.83818 382.195 -0.74696 -0.130496 0.651937 
-24.8877 -6.49432 394.81 -0.953924 0.0219652 0.299242 
-19.7107 -7.36808 404.272 -0.722539 -0.0210332 0.69101 
-12.6133 -7.74484 412.375 -0.757388 0.0417003 0.651632 
-2.76282 -7.30639 418.008 -0.347047 0.193232 0.917725 
12.6167 -5.55397 420.482 -0.0933513 0.167889 0.981376 
-29.0368 -3.96867 381.858 -0.682214 -0.17355 0.710256 
-25.315 -5.22258 392.322 -0.97585 0.027555 0.216695 
-20.6888 -6.29657 402.434 -0.680969 0.166559 0.713119 
-14.0431 -6.86305 411.233 -0.772619 0.218257 0.596175 
-4.38574 -6.51245 417.244 -0.199083 0.0727476 0.977279 
9.32258 -5.03497 420.122 -0.0663293 0.115894 0.991044 
-29.5406 -2.92027 380.625 -0.957298 -0.0413968 0.286123 
-24.9385 -4.27519 392.206 -0.808218 0.477391 0.344793 
-19.0811 -5.58875 404.444 -0.871408 0.388368 0.299698 
-8.97831 -5.94581 414.605 -0.446743 0.139474 0.883724 
7.37953 -4.56369 419.997 -0.151452 0.0329569 0.987915 
-29.8205 -1.66829 377.531 -0.954145 0.283175 0.0970533 
-24.5987 -3.60546 392.621 -0.910123 0.271263 0.313197 
-18.4543 -4.87923 404.807 -0.561154 0.151863 0.813661 
-8.75087 -5.23432 414.671 -0.621634 0.0133702 0.783194 
6.52548 -3.94652 419.864 -0.153743 0.100091 0.983028 
-29.7973 -0.997854 377.792 -0.982839 0.147644 0.110581 
-24.2208 -3.01651 393.495 -0.883633 0.108093 0.455532 
-16.257 -4.41986 407.646 -0.654524 0.320569 0.684715 
-3.63744 -4.3496 417.392 -0.42302 0.110627 0.899342 
-41.2011 -0.234261 368.303 -0.684953 -0.411163 0.601485 
-26.8544 -1.13832 384.452 -0.895805 0.426087 0.126428 
-21.0915 -3.27191 400.812 -0.736552 0.394368 0.549513 
-13.0881 -3.91491 410.948 -0.585515 0.220853 0.779997 
-2.65533 -3.57424 417.701 -0.210444 -0.0747439 0.974744 
12.0244 -1.67763 419.439 0.0384623 0.466642 0.88361 
-38.3841 0.440099 371.509 -0.516146 -0.631091 0.579066 
-29.6377 0.46007 378.72 -0.971316 0.234155 0.0414273 
-28.9332 0.232752 381.352 -0.923907 0.10588 0.367675 
-28.9174 0.41595 381.34 -0.925222 0.0952313 0.367281 
-28.997 0.614728 381.174 -0.912944 -0.00745842 0.408017 
-29.2506 1.00631 379.887 -0.993477 0.0202943 0.112212 
-29.4534 1.36661 378.801 -0.979913 0.162421 0.115714 
-29.2844 1.96776 376.749 -0.955394 0.217324 -0.199982 
-29.026 2.50208 375.114 -0.933108 0.312777 -0.177428 
-28.5525 3.06641 373.491 -0.923289 0.307839 -0.229723 
-37.8197 1.95953 373.317 -0.740582 -0.610042 0.281759 
-37.8741 2.11745 373.385 -0.868163 -0.437915 0.233502 
-38.2948 2.2955 373.08 -0.429673 -0.809779 0.399547 
-38.5671 2.47729 372.866 -0.414289 -0.815465 0.404206 
-38.6541 2.56775 373.252 -0.743637 -0.63322 0.214562 
-28.2293 4.16537 373.688 -0.92211 0.335301 -0.193098 
-34.1488 -0.394987 393.407 -0.222402 -0.948088 0.227304 
-35.0283 -2.93912 406.533 -0.208566 -0.977617 -0.0276545 
-15.2393 -0.324563 408.763 -0.5858 -0.773038 0.243416 
-10.8905 -0.493523 413.723 -0.444545 -0.799032 0.40488 
-6.98627 -0.353523 416.796 -0.290655 -0.74207 0.60403 
-2.20678 0.105357 418.914 -0.173026 -0.544865 0.820478 
2.22337 0.620093 420.507 -0.491061 -0.0944854 0.865986 
7.38196 1.44205 421.108 -0.0297478 -0.457029 0.888954 
41.025 7.20927 418.185 -0.492022 -0.341145 0.800959 
-43.6036 5.0719 366.057 -0.990723 -0.134663 0.0182532 
-43.34 4.9024 367.985 -0.971709 -0.202359 0.121787 
-42.5712 4.77098 370.097 -0.92412 -0.379918 0.0408013 
-41.482 4.76813 371.806 -0.749065 -0.241468 0.616923 
-39.6973 4.81863 373.746 -0.599602 -0.397464 0.694622 
-38.7001 4.83691 375.278 -0.703292 -0.522271 0.4823 
-37.6417 4.93677 376.443 -0.464797 -0.48635 0.739883 
-37.1904 5.07059 376.996 -0.472502 0.00798058 0.881293 
-40.1984 1.19314 394.762 -0.278832 -0.95675 -0.0829655 
-37.8093 1.25772 397.056 -0.237296 -0.939055 0.248728 
-39.1825 -1.28585 409.384 -0.276695 -0.960785 -0.0181901 
-38.353 -1.52995 412.017 -0.00598793 -0.989216 0.146339 
-17.5562 2.06892 410.694 -0.470805 -0.834231 0.287055 
-15.8093 1.996 413.207 -0.765493 -0.39331 0.509242 
-13.5447 2.01089 415.688 -0.624536 -0.681725 0.381059 
-10.1844 2.21216 418.078 -0.293697 -0.517361 0.803791 
-5.86868 2.63578 420.101 -0.171151 -0.407197 0.897161 
-1.0298 3.27214 421.505 -0.276508 -0.609813 0.742746 
4.8305 4.13526 422.583 0.101979 -0.567955 0.816718 
36.7315 9.98405 419.183 0.0412724 -0.864529 0.500885 
-43.3882 7.59499 370.613 -0.826329 -0.370668 0.424011 
-43.5242 2.3595 396.579 -0.327893 -0.89318 0.30776 
-41.4879 0.394247 408.386 -0.547261 -0.834518 0.0639111 
-17.7069 3.39616 412.558 -0.883569 -0.377602 0.276989 
-11.1444 3.34713 418.579 -0.650884 -0.147529 0.744705 
-2.44944 4.24068 421.692 -0.0981463 -0.526415 0.844544 
9.21098 5.92551 423.305 -0.0867662 -0.449501 0.889056 
43.7216 11.8138 422.151 -0.612278 -0.117734 0.781828 
-42.3669 8.45623 373.237 -0.544904 -0.348692 0.762557 
-44.6817 3.13445 397.69 -0.484837 -0.781749 0.392176 
-41.766 2.79305 402.279 -0.516873 -0.833732 -0.194248 
-42.83 1.05198 410.581 -0.694673 -0.698144 -0.173276 
-41.5593 0.0956004 416.865 -0.477649 -0.777083 0.409869 
-13.8846 4.4667 417.771 -0.574122 -0.625424 0.528421 
-9.33665 4.80718 420.433 -0.24299 -0.633661 0.734459 
-3.59533 5.54809 422.123 -0.241111 -0.0233404 0.970217 
0.360959 6.1313 423.208 -0.111904 -0.594916 0.79596 
4.96088 6.92234 423.817 -0.35978 -0.394995 0.845303 
10.0808 7.82847 424.3 -0.0757366 -0.40757 0.910028 
12.6185 8.38043 424.49 0.163167 -0.386816 0.907607 
13.5345 8.72265 424.435 0.128606 -0.282543 0.950594 
11.1972 8.49705 424.55 -0.0378203 0.197166 0.97964 
10.9687 8.64919 424.525 0.0432358 0.00630501 0.999045 
11.5038 8.90787 424.556 -0.00562534 -0.42592 0.904743 
12.4478 9.21208 424.697 0.132643 -0.56989 0.810944 
12.0416 9.30063 424.815 0.114389 -0.577186 0.808561 
8.85169 8.92257 424.966 0.141117 -0.592657 0.792996 
5.39558 8.53924 424.926 0.0341459 -0.642909 0.765181 
4.62597 8.59353 424.909 -0.18087 -0.486096 0.854983 
3.3855 8.62789 424.618 -0.285984 -0.512567 0.809622 
0.899336 8.4194 424.491 0.130596 -0.647821 0.750515 
0.301584 8.48029 424.564 -0.0335442 -0.484422 0.874191 
-0.976714 8.49583 424.324 -0.085251 -0.410124 0.908037 
-0.414915 8.72191 424.526 -0.120136 -0.491358 0.862633 
2.80124 9.29877 425.171 0.00585468 -0.520063 0.854108 
8.94892 10.3528 425.902 0.127913 -0.452745 0.882417 
39.6671 16.4907 422.368 -0.535605 0.637443 0.55389 
-44.7036 13.2986 372.327 -0.887043 -0.41717 0.197796 
-38.3559 13.1523 378.561 -0.713499 0.262806 0.649502 
-50.3632 4.87384 407.869 -0.37176 -0.913564 -0.164911 
-44.0763 2.55258 423.911 -0.249247 -0.89935 0.359229 
-10.5159 8.74809 422.227 -0.617876 -0.0515962 0.784581 
-1.39625 9.86088 425.015 -0.0843503 -0.550266 0.830718 
13.4529 12.2282 426.601 0.0834461 -0.419187 0.904057 
-44.633 14.2833 372.818 -0.96043 0.00355493 0.278497 
-50.8839 7.91277 397.508 -0.812888 -0.438334 -0.383506 
-51.2934 4.88382 411.551 -0.231436 -0.953081 0.195127 
-44.6466 3.08907 425.417 -0.667977 -0.73443 0.12008 
-7.54185 9.97742 423.692 -0.179067 -0.651866 0.736889 
4.30007 11.5168 426.763 -0.0832934 -0.503945 0.85971 
46.0275 18.7608 427.618 -0.564024 -0.591845 0.575844 
-38.5754 14.965 379.134 -0.726322 -0.298001 0.619396 
-50.2235 4.99236 415.525 -0.194467 -0.941675 0.274647 
-45.6148 3.74479 425.337 -0.498272 -0.846575 0.187178 
-8.50198 10.6306 423.919 -0.186722 -0.589941 0.78556 
4.98 12.3887 427.376 -0.00858402 -0.486375 0.873708 
-44.2614 16.5006 371.267 -0.996426 0.0163794 0.0828656 
-52.8522 7.51893 405.236 -0.74059 -0.669367 -0.0589384 
-49.8393 5.3365 417.894 -0.61068 -0.789598 0.060045 
-44.9628 4.06032 428.001 -0.409729 -0.890305 0.198695 
-5.70185 11.6812 425.328 -0.28014 -0.461857 0.841552 
7.95046 13.6391 428.127 0.0525907 -0.590143 0.805584 
-43.7769 17.0649 373.153 -0.829366 0.327857 0.452396 
-53.0505 7.92128 406.94 -0.839215 -0.386793 0.382243 
-49.786 5.74808 419.686 -0.231191 -0.921451 0.312216 
-45.1234 4.67767 428.637 -0.721682 -0.685136 0.0988095 
-5.71335 12.4408 425.844 -0.0555661 -0.666838 0.743129 
7.19856 14.3493 428.362 -0.29628 -0.250938 0.921547 
47.0513 21.1909 430.577 -0.291882 -0.560388 0.775094 
-37.92 17.3343 381.095 -0.271818 -0.447521 0.851962 
-51.6261 6.55279 418.28 -0.696191 -0.63924 0.326635 
-46.671 5.49819 427.4 -0.442023 -0.886559 0.136488 
-9.07086 12.8484 425.266 -0.294411 -0.558137 0.775761 
3.6074 14.5702 428.487 -0.214494 -0.544509 0.810866 
45.6406 22.0137 430.089 -0.560285 -0.627834 0.540282 
-39.1261 18.3073 379.859 -0.789519 -0.320112 0.523629 
-52.6851 7.53919 416.711 -0.660803 -0.669732 0.338818 
-48.4659 6.56279 424.872 -0.90153 -0.277707 0.331847 
-13.099 13.286 423.985 -0.754751 -0.34377 0.558725 
-4.25154 14.2833 427.386 -0.238341 -0.371353 0.89738 
6.62373 15.9764 429.423 0.0839366 -0.553959 0.828302 
44.8266 23.1898 429.394 -0.932651 -0.0264928 0.359806 
-40.4007 19.5629 378.158 -0.935473 0.282078 0.212892 
-54.001 8.91076 414.012 -0.976726 -0.165063 -0.136968 
-50.6646 7.83513 421.855 -0.920743 -0.283106 0.268482 
-47.5918 7.32007 427.108 -0.82667 0.0652439 0.558892 
-11.7683 14.433 425.331 -0.547219 -0.400534 0.734931 
-7.27218 15.0053 427.184 0.0558423 -0.483725 0.873437 
-1.86817 15.8069 428.788 -0.124548 -0.539965 0.832422 
3.69928 16.6956 430.143 -0.0273427 -0.615866 0.787376 
11.7887 18.3037 430.5 0.143791 -0.601688 0.785681 
45.511 24.4111 432.262 -0.727561 -0.572925 0.377375 
-39.4123 21.8408 376.188 -0.611022 0.760517 0.219693 
-38.0294 21.245 380.501 -0.3899 0.292407 0.873199 
-36.7183 21.3277 381.913 -0.809892 0.116249 0.574945 
-53.2047 12.1748 408.442 -0.929601 0.200979 -0.308948 
-53.3941 11.8545 410.332 -0.751414 -0.604652 0.264146 
-53.6879 11.5469 412.086 -0.986373 0.162224 -0.0274097 
-53.6861 11.7673 411.852 -0.975142 0.143678 0.168683 
-53.5691 11.3614 414.314 -0.970428 -0.241273 0.00754085 
-52.7119 11.2454 416.161 -0.902397 0.301954 0.307413 
-52.0232 11.269 417.262 -0.771313 0.540491 0.336075 
-51.5636 11.0298 419.292 -0.72582 0.676174 0.126392 
-50.4952 11.063 420.658 -0.425154 0.599188 0.678393 
-49.3048 11.151 421.891 -0.521427 0.594473 0.61214 
-48.5783 11.1449 423.157 -0.517253 0.766364 0.380967 
-47.4001 11.0134 425.293 -0.762745 -0.476922 0.436766 
-45.2258 11.1065 427.279 -0.509843 -0.137252 0.849248 
-14.4901 17.5277 425.541 -0.710947 -0.104312 0.695466 
-11.5318 17.8261 427.375 -0.431629 -0.513888 0.741361 
-8.84522 18.2347 428.586 -0.293286 -0.309928 0.904394 
-6.00277 18.6859 429.687 -0.057441 -0.590935 0.804672 
-4.30946 19.0611 430.259 -0.181586 -0.586481 0.789346 
-2.47444 19.4284 430.926 -0.0152352 -0.624691 0.780723 
-1.07709 19.7308 431.535 -0.0496614 -0.688981 0.723076 
-3.62652 19.584 430.816 -0.336643 -0.684779 0.646335 
-8.87208 19.1465 429.123 -0.0554091 -0.601197 0.797178 
-15.9921 18.8303 425.428 -0.3057 -0.726338 0.615614 
-51.222 14.0514 417.873 -0.582519 0.698706 0.415309 
44.0467 29.3521 433.121 -0.964286 0.264209 -0.018604 
11.2078 23.0056 433.165 0.0617278 -0.479915 0.875141 
8.55818 22.6341 433.294 0.101499 -0.593354 0.798517 
7.06018 22.4895 433.394 0.187586 -0.566581 0.80237 
44.8493 30.5725 431.948 -0.747768 0.657305 0.0937707 
-34.6207 23.6143 396.267 -0.936429 -0.317564 -0.149174 
-27.973 20.5026 414.737 -0.908505 -0.353559 0.222742 
-16.6995 20.1358 425.941 -0.3609 -0.600847 0.713256 
0.797166 22.0499 433.019 -0.12812 -0.5724 0.809904 
-34.5687 25.3767 391.396 -0.982251 -0.0223184 -0.186241 
-30.6525 21.4004 411.119 -0.947473 -0.266054 0.177512 
-20.8537 20.5973 422.829 -0.518263 -0.578457 0.629913 
-7.25638 21.4665 430.997 -0.444349 -0.53232 0.720548 
9.19299 24.2095 434.018 0.0857841 -0.481419 0.872283 
-35.0031 24.9773 395.474 -0.846583 -0.532087 0.0134555 
-32.445 22.4038 408.47 -0.856744 -0.428745 0.286647 
-26.2066 21.3884 418.162 -0.754197 -0.345349 0.558498 
-18.7965 21.2747 425.253 -0.413901 -0.686421 0.597923 
-3.91075 22.5115 433.068 -0.21741 -0.73669 0.640329 
8.79206 24.9381 434.407 0.142171 -0.432855 0.890182 
-35.0177 26.7727 391.943 -0.973248 -0.179295 -0.143675 
-34.5017 24.5832 401.693 -0.759431 -0.644546 -0.0884555 
-33.1787 23.4671 407.837 -0.922217 -0.197757 0.332276 
-31.4689 23.1608 411.088 -0.945672 -0.193759 0.261078 
-29.5392 22.7864 414.788 -0.342612 -0.680629 0.647581 
-27.1026 22.6504 417.955 -0.92013 -0.361908 0.149609 
-23.6687 22.507 421.976 -0.682262 -0.435922 0.586933 
-19.4517 22.589 425.721 -0.288681 -0.677387 0.676617 
-6.79694 23.641 432.537 -0.280186 -0.611436 0.740029 
0.472902 24.7402 434.841 0.0144636 -0.600211 0.799711 
9.4054 26.6883 435.171 0.142691 -0.467288 0.872514 
-35.4703 28.9411 390.178 -0.970563 0.124327 -0.206279 
-35.6968 27.3657 396.821 -0.967515 0.250423 -0.0346922 
-35.3472 26.8734 399.7 -0.933972 -0.356638 0.022479 
-34.8454 26.212 403.364 -0.93819 -0.335435 0.0853422 
-33.7802 25.3898 408.068 -0.642836 -0.0639783 0.763327 
-32.2417 24.9863 411.495 -0.964579 -0.200885 0.170972 
-29.973 24.7134 415.086 -0.937157 -0.239642 0.253592 
-27.5869 24.4312 418.763 -0.877679 -0.255763 0.405296 
-25.4232 24.3465 421.487 -0.758352 -0.476875 0.444402 
-22.875 24.3906 424.071 -0.713911 -0.425441 0.556176 
-20.0214 24.5077 426.602 -0.473902 -0.411509 0.77851 
-8.60912 25.4547 432.922 -0.389799 -0.380466 0.838631 
-3.16788 26.1555 435.376 -0.0626254 -0.522753 0.850181 
0.36978 26.9221 435.985 -0.19898 -0.4933 0.846795 
6.36715 28.26 436.455 0.0755137 -0.311717 0.94717 
-35.4939 32.2628 387.138 -0.961184 -0.137548 -0.239179 
-35.8486 31.663 389.897 -0.800109 -0.51684 -0.304471 
-36.4628 30.2384 395.475 -0.88081 -0.426862 0.204847 
-36.1754 28.8553 401.677 -0.888634 -0.335031 0.313182 
-34.728 28.0112 406.744 -0.960574 0.276331 -0.0306263 
-32.4085 27.1537 412.482 -0.973407 -0.22617 0.0364114 
-29.5507 26.5921 417.572 -0.844088 -0.412367 0.342739 
-25.4008 26.2967 422.725 -0.594145 -0.459036 0.660513 
-20.288 26.3283 427.419 -0.237669 -0.461039 0.85496 
-8.77276 27.2929 433.869 -0.158492 -0.5372 0.82843 
-1.17801 28.4755 436.311 -0.00738272 -0.390425 0.920605 
-35.7955 34.0184 387.261 -0.886932 -0.30812 -0.344112 
-36.8934 30.7694 399.27 -0.849865 -0.526966 0.00598621 
-34.7838 28.9899 408.307 -0.911478 -0.393676 0.119275 
-30.4795 27.9124 416.464 -0.97519 -0.0657779 0.211371 
-24.6011 27.3277 424.073 -0.657938 -0.200801 0.725808 
-16.3449 27.6807 430.17 -0.456683 -0.213456 0.863642 
-6.11662 28.6411 435.658 -0.301911 -0.409152 0.861072 
-36.468 34.4121 389.364 -0.932417 -0.0711255 -0.354315 
-35.9539 30.2522 405.942 -0.977776 -0.133656 0.161524 
-30.1059 28.5182 417.76 -0.804341 -0.287936 0.519738 
-21.9018 28.0081 427.005 -0.532787 -0.434531 0.726169 
-11.6395 28.7933 433.169 -0.325673 -0.467142 0.822019 
0.536073 30.509 437.474 -0.0457123 -0.291263 0.95555 
-37.5609 32.4749 399.052 -0.975552 -0.173911 -0.134362 
-34.0806 30.0474 411.477 -0.920351 -0.322324 0.221496 
-27.8762 28.9035 421.376 -0.70368 -0.421882 0.571708 
-19.4372 28.8768 429.047 -0.551525 -0.296143 0.77982 
-8.88074 29.7878 435.036 -0.473115 -0.350286 0.80837 
7.8296 32.9873 437.668 0.127569 -0.208063 0.969761 
-37.0124 32.2139 403.702 -0.98167 -0.176764 0.0712639 
-32.1286 30.4101 414.959 -0.737106 -0.254279 0.626113 
-25.6376 29.4853 424.284 -0.828097 -0.0259662 0.559983 
-16.2965 29.8773 431.172 -0.450181 -0.436637 0.7789 
-5.94362 30.9234 436.576 -0.444541 -0.304094 0.842562 
-37.1286 36.3342 391.215 -0.97591 -0.102679 -0.192501 
-36.9542 32.7445 405.137 -0.857732 -0.510458 -0.0610666 
-33.2771 31.4067 413.573 -0.833049 -0.208427 0.512433 
-28.5326 30.5603 421.188 -0.767236 -0.413757 0.490055 
-22.2558 30.3648 427.713 -0.355189 -0.325832 0.87617 
-14.6649 30.9468 432.455 -0.353314 -0.385801 0.852248 
-4.46712 32.1044 437.399 -0.313052 -0.233262 0.920645 
-37.9227 36.3511 394.454 -0.981201 -0.0699935 -0.179848 
-36.1283 33.0799 408.441 -0.772792 -0.369904 0.515716 
-31.262 31.9156 417.219 -0.674977 -0.401921 0.618761 
-25.6136 31.271 424.823 -0.768411 -0.439432 0.465236 
-17.3264 31.5964 431.108 -0.587285 -0.245413 0.771277 
-8.48105 32.4597 436.003 -0.339737 -0.16606 0.925744 
-35.8908 39.9415 386.444 -0.942506 -0.00309746 -0.334175 
-38.0737 35.0501 402.967 -0.970488 0.056481 0.234443 
-34.6812 33.4762 412.009 -0.788012 -0.413499 0.456131 
-30.3845 32.6848 418.953 -0.71236 -0.3685 0.597287 
-25.0372 32.216 425.696 -0.379066 -0.196631 0.904237 
-17.3632 32.5554 431.432 -0.451469 -0.088244 0.887913 
-8.14853 33.4669 436.459 -0.410885 -0.232749 0.881477 
4.86087 36.0789 438.582 -0.0270867 0.162731 0.986299 
-38.0202 36.0699 403.192 -0.861909 -0.241369 0.44593 
-35.1154 34.5558 411.549 -0.745755 -0.158358 0.647126 
-31.4103 33.8658 417.699 -0.9434 -0.119619 0.309335 
-27.7799 33.3542 423.143 -0.531986 -0.21764 0.818305 
-23.4399 33.3226 427.428 -0.333168 -0.439974 0.833919 
-18.0331 33.6916 431.225 -0.512177 -0.0698734 0.856033 
-12.1817 34.2586 434.719 -0.456687 -0.118402 0.881713 
-5.81508 35.1037 437.683 -0.361567 -0.0776543 0.929107 
4.19196 37.3231 438.795 0.106298 -0.0866185 0.990555 
-37.9687 37.3155 403.924 -0.961811 -0.179874 0.206313 
-35.7879 36.0125 410.867 -0.886642 -0.283117 0.365665 
-32.7035 35.3846 416.255 -0.452441 -0.293482 0.842119 
-29.4934 34.9022 421.211 -0.886262 -0.203039 0.416311 
-26.6399 34.7119 424.869 -0.575089 -0.226661 0.786065 
-23.9783 34.7966 427.348 -0.726444 -0.0631607 0.684317 
-21.8938 34.9933 429.024 -0.417981 -0.30829 0.854546 
-19.4381 35.3023 430.6 -0.566914 -0.198944 0.799393 
-16.5292 35.6452 432.459 -0.361195 -0.29817 0.883534 
-13.8173 36.0068 434.072 -0.473577 -0.221007 0.852573 
-11.2018 36.3853 435.574 -0.372846 0.0139127 0.927789 
-8.50531 36.8564 436.812 -0.456574 0.0401368 0.88878 
-5.65933 37.3935 437.956 -0.343071 -0.148819 0.927446 
-2.06653 38.2722 438.53 -0.223124 -0.133846 0.965557 
1.55309 39.1537 439.132 0.0298692 0.00582503 0.999537 
-37.9462 42.5348 394.641 -0.977985 0.138259 -0.156299 
-38.1828 39.7886 404.491 -0.972446 -0.0379207 0.230024 
-37.4591 39.3656 407.159 -0.992007 0.0848239 0.0934199 
-36.6243 39.0039 409.686 -0.943834 0.137181 0.300598 
-35.5457 38.7252 412.172 -0.690712 -0.109022 0.714865 
-34.5325 38.5471 414.234 -0.841357 -0.195608 0.503841 
-33.625 38.4406 415.918 -0.886035 -0.0808361 0.456517 
-32.1847 38.3622 417.997 -0.535277 -0.266313 0.801596 
-31.0599 38.3225 419.683 -0.758405 -0.108555 0.64268 
-30.0998 38.3323 421.063 -0.999576 0.00559003 -0.0285857 
-29.1098 38.3441 422.41 -0.586197 -0.141635 0.797692 
-27.9127 38.3342 424.011 -0.428716 -0.0179789 0.903261 
-26.7285 38.4779 425.173 -0.817737 -0.0879439 0.568834 
-25.8638 38.5706 426.182 -0.467014 -0.10415 0.878095 
-25.0738 38.6845 427.032 -0.589473 -0.0419995 0.806696 
-23.8556 38.831 428.163 -0.725112 0.137841 0.674694 
-21.8278 39.1352 429.457 -0.462104 -0.0751618 0.883635 
-19.3717 39.4448 431.043 -0.663373 -0.0139021 0.74816 
-16.5493 39.8078 432.767 -0.496515 -0.0428323 0.866971 
-14.0495 40.216 434.145 -0.508526 0.0336377 0.860389 
-11.3687 40.6264 435.598 -0.296756 -0.0961628 0.950099 
-7.4214 41.2874 437.343 -0.303704 0.0267625 0.952391 
-1.05376 42.6454 438.713 -0.0982072 -0.169583 0.980611 
-38.2817 45.2017 398.955 -0.986934 0.160542 -0.0136564 
-37.7726 43.4376 405.907 -0.981337 0.185445 0.0508651 
-36.1089 42.3689 411.46 -0.968005 -0.0529716 0.245278 
-33.7189 41.8055 415.928 -0.718013 -0.205775 0.664917 
-31.2583 41.4273 419.804 -0.905454 0.0196402 0.423989 
-28.7015 41.2634 423.095 -0.521312 0.0518559 0.851789 
-26.307 41.285 425.619 -0.612579 0.272512 0.741946 
-23.669 41.4376 427.922 -0.432281 0.108921 0.895136 
-21.0926 41.7462 429.618 -0.452691 0.0770286 0.888334 
-18.5136 42.0667 431.336 -0.581108 0.102528 0.807342 
-16.7326 42.3666 432.441 -0.504995 0.0759112 0.859778 
-14.8671 42.6984 433.477 -0.352183 0.165931 0.921105 
-12.5878 43.1267 434.631 -0.455091 0.0954753 0.885311 
-10.2517 43.5661 435.734 -0.340882 0.263107 0.902538 
-7.51183 44.1432 436.75 -0.399151 0.282853 0.872166 
-4.2525 44.9698 437.372 -0.189662 0.300862 0.934618 
-1.3203 45.6913 438.077 -0.0978225 0.171432 0.980327 
-36.5499 49.5157 395.844 -0.879428 0.475829 0.0139188 
-37.2399 48.2135 400.184 -0.993487 0.10814 -0.0359183 
-37.498 47.2479 403.733 -0.923706 -0.0429888 0.380682 
-37.1956 46.6318 406.631 -0.93544 0.272494 0.225166 
-36.9028 46.2962 408.542 -0.950866 0.0237846 0.308688 
-36.2964 46.0706 410.34 -0.909535 0.0841347 0.407024 
-35.5906 45.9307 412.028 -0.953618 0.0547015 0.296009 
-34.5803 45.7138 414.113 -0.877773 0.0894226 0.470657 
-33.4125 45.6122 416.023 -0.760656 -0.111424 0.639521 
-32.6523 45.6335 417.158 -0.8872 0.123823 0.444459 
-32.1332 45.7468 417.825 -0.851353 -0.0849158 0.517675 
-31.9731 45.87 418.143 -0.793573 -0.120548 0.596415 
-31.5389 46.0047 418.66 -0.85183 0.144272 0.503559 
-31.2158 46.1498 419.051 -0.770103 0.159721 0.617601 
-30.6032 46.2265 419.858 -0.601277 -0.269537 0.752207 
-29.8543 46.3934 420.532 -0.900311 0.25954 0.349399 
-29.6726 46.5336 420.829 -0.757629 0.309278 0.574757 
-29.5937 46.7544 420.762 -0.794722 0.150444 0.588034 
-29.8413 46.9282 420.547 -0.672144 0.0707096 0.737036 
-30.378 47.1748 419.916 -0.826309 0.169467 0.537117 
-31.631 47.5864 418.116 -0.838997 -0.113373 0.532195 
-32.8247 48.0406 416.248 -0.779403 0.22368 0.585233 
-33.9878 48.5163 414.34 -0.850671 0.154735 0.50241 
-35.0808 49.1057 412.108 -0.916798 0.0795822 0.391341 
-35.9006 50.0326 409.08 -0.949911 0.265305 0.165173 
-36.0334 51.9798 403.293 -0.902019 0.35281 0.248772 
-2.0534 51.1783 435.778 -0.228071 0.47964 0.847307 
-9.03101 50.181 433.589 -0.302749 0.392488 0.868502 
-14.116 49.6607 431.495 -0.543947 0.444368 0.711799 
-18.2738 49.6215 428.657 -0.636666 0.454587 0.622902 
-22.5939 49.4133 426.242 -0.410134 0.283178 0.866949 
-26.2363 49.4998 423.47 -0.465747 0.356914 0.809748 
-29.6272 49.9454 419.778 -0.697846 0.340938 0.629898 
-33.0487 50.8341 414.677 -0.758564 0.180666 0.626052 
-35.3226 52.2713 408.799 -0.942217 0.275262 0.190937 
-2.48238 53.3183 434.502 -0.433356 0.526605 0.731362 
-10.2529 52.2315 431.864 -0.284861 0.584079 0.76007 
-16.8505 51.7245 428.402 -0.521316 0.480004 0.705568 
-24.8032 51.2258 423.813 -0.679942 0.290448 0.67329 
-32.165 52.08 415.514 -0.862006 0.383042 0.332001 
-34.5511 56.0639 401.56 -0.890186 -0.429412 0.152232 
-20.0041 52.4512 426.296 -0.356726 0.411072 0.838908 
-31.1047 52.5874 417.103 -0.812773 0.247094 0.527584 
-2.74844 55.56 433.084 -0.507244 0.526596 0.682202 
-26.0768 52.9652 421.862 -0.514278 0.320054 0.795666 
-34.4795 55.792 406.527 -0.992135 0.122864 0.0239384 
-24.4451 53.6243 422.899 -0.577207 0.272977 0.76962 
-34.4983 56.1811 407.063 -0.98121 -0.19265 0.0105904 
-27.5253 54.1816 420.277 -0.752751 0.147936 0.641468 
-16.2755 55.7657 426.043 -0.246635 0.531321 0.810475 
-32.8057 55.9915 411.963 -0.698362 0.613617 0.368463 
-26.93 55.2065 420.454 -0.573732 0.155245 0.804196 
-18.0451 56.5627 424.945 -0.44629 0.417514 0.791522 
-33.7727 57.5109 409.334 -0.908077 -0.231746 0.348842 
-28.7242 56.5099 417.768 -0.508878 0.408098 0.757957 
-22.3417 57.0221 422.71 -0.467375 0.220577 0.8561 
-17.6737 58.1275 424.458 -0.351575 0.379761 0.855673 
-18.9686 58.3494 423.812 -0.30678 0.409758 0.85906 
-24.6868 58.2754 420.314 -0.447158 0.52739 0.722433 
-32.3123 59.9751 409.879 -0.804144 0.491314 0.334608 
-28.8903 59.7267 415.187 -0.79781 0.221588 0.560712 
-23.5632 60.4019 419.325 -0.42376 0.42207 0.801426 
-23.4757 61.511 418.337 -0.328621 0.512999 0.792994 
8.90044 -51.5047 386.095 -0.028047 0.0526212 0.998221 
12.2369 -49.2197 383.222 0.063768 -0.811243 0.581222 
38.0226 -48.4639 394.667 0.506163 -0.544851 0.668533 
16.5637 -48.1846 385.706 0.228987 -0.63019 0.741906 
38.8675 -47.5388 394.609 0.670838 -0.481001 0.564459 
35.2978 -47.4384 395.289 0.0864575 -0.365417 0.92682 
20.6689 -46.9622 387.884 0.0867851 -0.911303 0.402486 
0.645282 -46.7687 379.964 -0.432367 -0.850869 0.298465 
36.7592 -46.2023 395.962 0.216694 -0.310314 0.925607 
36.0493 -45.9001 395.954 -0.301014 -0.254168 0.919124 
-18.4123 -47.0117 381.862 -0.55534 -0.413166 0.721728 
9.8886 -46.414 393.448 -0.0900873 -0.976102 0.197759 
27.2364 -44.6266 388.992 -0.100735 -0.57736 0.810251 
-5.26161 -44.9406 378.674 -0.292596 -0.904147 0.311297 
21.1422 -44.9966 393.946 0.195565 -0.957721 0.211008 
-19.2024 -45.6515 382.198 -0.27393 -0.332607 0.902405 
17.166 -45.0749 397.173 0.144377 -0.942819 0.300414 
37.6392 -43.6147 396.575 0.21963 -0.043632 0.974607 
10.0476 -45.0975 398.494 0.0579483 -0.950083 0.306568 
21.0687 -44.0752 397.789 0.277531 -0.907017 0.316697 
-17.804 -44.2289 383.127 -0.46615 -0.116539 0.876997 
20.1199 -43.7764 399.164 0.178972 -0.889324 0.420799 
6.04284 -44.3002 398.71 -0.229239 -0.927704 0.294643 
-19.1203 -43.5476 382.899 -0.678747 -0.111919 0.725794 
23.9069 -42.8015 398.525 0.416476 -0.864243 0.282191 
14.6682 -43.5585 401.965 0.175514 -0.807614 0.562988 
5.13204 -43.6582 400.074 -0.16397 -0.944686 0.284045 
-3.54783 -43.1726 393.953 -0.552856 -0.789187 0.267459 
38.5583 -40.9513 396.756 0.452137 0.044516 0.890837 
24.3017 -41.9147 399.874 0.248392 -0.844152 0.475089 
15.9346 -42.6372 403.338 0.158608 -0.809412 0.565417 
7.61188 -42.8603 402.927 -0.371203 -0.845796 0.383193 
-0.0796726 -42.5591 398.758 -0.174864 -0.935494 0.30704 
-11.1519 -40.3778 379.031 -0.440476 -0.235554 0.866312 
38.5081 -39.755 396.896 0.347456 -0.117597 0.930293 
32.5668 -39.5823 394.767 -0.777588 0.356191 0.518155 
22.3541 -41.0579 403.072 0.369669 -0.781232 0.503013 
19.0581 -41.2328 404.356 0.0927576 -0.834325 0.543414 
15.6176 -41.4031 405.515 0.128075 -0.820034 0.5578 
13.5739 -41.3791 405.793 0.245611 -0.815162 0.524582 
11.206 -41.3292 405.747 0.00776359 -0.724639 0.689084 
9.00278 -41.2706 405.691 0.0698666 -0.822023 0.565152 
8.15074 -41.1417 405.66 0.286878 -0.837585 0.464922 
6.96219 -41.0124 405.49 0.0140719 -0.852055 0.523263 
6.11106 -40.861 405.298 -0.226566 -0.855784 0.465083 
4.92077 -40.6953 404.869 -0.198921 -0.92549 0.322332 
3.38964 -40.5527 404.445 -0.192567 -0.817876 0.542215 
2.19501 -40.4325 404.362 0.0684819 -0.743029 0.665747 
0.997125 -40.2607 403.957 -0.239441 -0.908671 0.342032 
-0.376719 -40.0763 403.251 -0.139224 -0.677642 0.722093 
-2.27085 -39.8868 402.332 -0.375305 -0.797366 0.472603 
-4.5265 -39.6297 400.9 -0.232941 -0.859085 0.455754 
-8.22208 -39.2606 398.04 -0.566251 -0.668415 0.482267 
-10.9269 -38.8455 395.302 -0.598594 -0.744816 0.294847 
-12.9653 -38.3994 392.658 -0.715295 -0.649082 0.258934 
-18.1019 -37.0733 382.668 0.201091 -0.0790675 0.976376 
-20.6811 -36.9462 381.933 -0.385494 -0.38154 0.840132 
38.4855 -35.3106 395.403 0.627928 0.0664309 0.775431 
36.8532 -35.2585 395.782 -0.234611 0.339427 0.910904 
28.7224 -36.8154 404.653 0.416968 -0.640358 0.645043 
26.7594 -36.9108 405.834 0.375342 -0.695904 0.612238 
25.5205 -36.9321 406.647 0.423914 -0.717218 0.553078 
24.4668 -36.8943 407.176 0.299666 -0.581752 0.756151 
23.0677 -36.9063 407.913 0.534932 -0.528436 0.659245 
21.3396 -36.9424 408.665 0.389475 -0.629749 0.672105 
19.6088 -36.988 409.532 0.227651 -0.312308 0.922301 
14.8773 -37.2282 410.569 0.111386 -0.634085 0.765199 
5.36335 -37.4075 409.518 -0.314539 -0.868694 0.38267 
-2.2216 -37.1847 406.293 -0.452979 -0.685701 0.569757 
-10.5913 -36.4887 399.668 -0.271794 -0.721447 0.636901 
31.3704 -34.6013 404.602 0.545442 -0.708018 0.448557 
20.539 -35.8234 410.008 0.067715 -0.45471 0.888062 
2.80148 -36.5492 409.538 -0.231228 -0.556314 0.798153 
-9.72492 -35.8407 401.384 -0.57589 -0.600954 0.554261 
29.1232 -34.2117 406.903 0.438836 -0.606537 0.662975 
18.0958 -35.3079 411.359 0.403173 -0.687296 0.604215 
0.241283 -35.7765 409.134 -0.5335 -0.679282 0.503938 
-10.2719 -35.0408 401.718 -0.46969 -0.538022 0.699946 
30.2715 -33.3009 406.955 0.597848 -0.587345 0.545531 
19.728 -34.3882 411.407 0.321875 -0.61244 0.722021 
-0.132853 -35.0706 409.922 -0.193496 -0.748272 0.634546 
-14.4362 -33.8576 398.319 -0.544417 -0.580842 0.605172 
18.9955 -33.8633 412.123 0.0274429 -0.568057 0.822532 
