2.36253 2.62006 2.69577 
2.28 2.67454 2.68308 
2.69853 2.66612 2.26141 
2.51495 2.66505 2.54086 
2.50426 2.58668 2.63366 
2.25025 2.61525 2.74755 
2.34705 2.64542 2.68044 
2.22379 2.68601 2.69232 
2.58032 2.70856 2.40147 
2.60211 2.5793 2.54943 
2.54308 2.60203 2.58534 
2.50006 2.665 2.55471 
2.47495 2.60625 2.63787 
2.23335 2.59418 2.76974 
2.61036 2.73384 2.29822 
2.51898 2.56353 2.64273 
2.43729 2.6458 2.62588 
2.37319 2.63297 2.67829 
2.40331 2.75711 2.51394 
2.36666 2.72208 2.58665 
2.72026 2.59109 2.36308 
2.49706 2.62165 2.60539 
2.39076 2.5977 2.70004 
2.33669 2.66777 2.66387 
2.29213 2.68881 2.66347 
2.54746 2.61947 2.56262 
2.54776 2.70284 2.45384 
2.4766 2.70782 2.52138 
2.35261 2.70692 2.61313 
2.64407 2.68576 2.33898 
2.44705 2.70196 2.55444 
2.46856 2.68011 2.56383 
2.41125 2.67755 2.60975 
2.32164 2.70819 2.6285 
2.41747 2.72143 2.5525 
2.49487 2.58114 2.64605 
2.47194 2.6889 2.55017 
2.36168 2.77022 2.52531 
2.60218 2.60766 2.51781 
2.45202 2.68182 2.57515 
2.25327 2.74376 2.61861 
2.54653 2.7436 2.38518 
2.63379 2.5761 2.51616 
2.29531 2.72218 2.6255 
2.46196 2.72013 2.51769 
2.34809 2.68717 2.63768 
2.67701 2.66674 2.31164 
2.48579 2.67093 2.56024 
2.31378 2.69989 2.64163 
2.4585 2.65526 2.60035 
2.35079 2.65935 2.66498 
2.33817 2.72271 2.60277 
2.43837 2.6806 2.58704 
2.35815 2.68944 2.6296 
2.17508 2.65704 2.73324 
2.34073 2.71109 2.61502 
2.16471 2.67982 2.71464 
2.41617 2.73725 2.53223 
2.28892 2.64929 2.70352 
2.1944 1.02846 2.13534 
2.40457 2.65431 2.63891 
2.46114 1.71185 2.83924 
2.32003 2.75371 2.57402 
2.35481 2.70538 2.61364 
2.18692 1.01764 2.00568 
2.31915 2.66974 2.67052 
2.6158 1.57922 2.66613 
2.15915 1.01306 1.97514 
2.25533 2.73399 2.62934 
2.1977 1.01979 2.00975 
2.11967 1.01689 2.13845 
2.12286 1.08087 2.3743 
2.10582 1.00774 1.93498 
2.37691 1.76924 2.89704 
2.15751 1.01723 2.09669 
2.16526 1.02051 2.11529 
2.22317 1.57776 2.87858 
2.14533 1.0269 2.17876 
2.28009 1.04294 2.07475 
2.37972 1.2896 2.59257 
2.31245 1.18875 2.49422 
2.13327 1.00944 1.96786 
2.05656 1.00205 2.02995 
2.35299 1.15376 2.39908 
2.20095 1.04538 2.21981 
2.13133 1.00899 2.02551 
2.27068 1.06308 2.22116 
2.1976 1.04124 2.20428 
2.16965 1.01644 1.93818 
2.00368 1.0156 2.17591 
2.15453 1.02453 2.1568 
2.27006 1.03843 2.04945 
2.01829 1.00324 2.07831 
2.06584 1.0228 2.20188 
2.03923 1.02551 2.22099 
2.16035 1.01623 2.08047 
2.17999 1.0415 2.22111 
2.04578 1.00155 1.96827 
2.06143 1.02331 2.20566 
1.91811 1.01328 2.14025 
2.07156 1.05795 2.32775 
2.26692 1.09511 2.33155 
2.1769 1.02691 2.14768 
2.11094 1.00665 2.03096 
2.13109 1.00874 1.98546 
2.24816 1.06621 2.2578 
2.30597 1.08956 2.27834 
2.10723 1.0058 2.00809 
2.21878 1.13148 2.44476 
2.24836 1.11533 2.39456 
2.29102 1.12223 2.38057 
2.25043 1.18388 2.5208 
2.32368 1.10516 2.30739 
2.23182 1.0859 2.33269 
2.30606 1.08174 2.25124 
2.24311 1.11568 2.39859 
2.23482 1.09914 2.36511 
2.1863 1.05897 2.28241 
2.20598 1.09528 2.3729 
2.20238 1.09659 2.378 
2.22799 1.08589 2.33528 
2.32187 1.14591 2.40857 
2.34098 1.15744 2.41692 
2.27551 1.12664 2.40166 
2.30654 1.1265 2.37819 
2.33069 1.1607 2.43154 
2.35003 1.1759 2.44534 
2.26342 1.15644 2.46799 
2.37237 1.1146 2.27822 
2.35046 1.22119 2.52023 
2.36291 1.24287 2.54318 
2.21215 1.13419 2.45317 
2.33352 1.12861 2.3598 
2.35527 1.26762 2.58086 
2.33744 1.26905 2.59317 
2.24982 1.19109 2.53221 
2.30859 1.28132 2.62311 
2.27347 1.24592 2.59713 
2.4484 1.25319 2.49113 
2.30073 1.23722 2.57247 
2.34022 1.22235 2.52869 
2.28808 1.24852 2.59354 
2.40491 1.48333 2.75438 
2.4099 1.28785 2.56994 
2.4159 1.27914 2.55442 
2.28267 1.24335 2.58955 
2.32365 1.74102 2.91005 
2.31922 1.30099 2.63991 
2.36642 1.22949 2.52159 
2.43959 1.38184 2.65165 
2.5008 1.31591 2.5303 
2.26999 1.23473 2.58436 
2.3126 1.27268 2.61097 
2.5009 1.6738 2.80168 
2.49037 1.31337 2.53674 
2.37138 1.37071 2.68269 
2.33212 1.69698 2.89324 
2.47494 1.44368 2.68186 
2.42059 1.40702 2.68664 
2.54571 1.8312 2.82079 
2.43916 1.46408 2.72106 
2.5465 1.51669 2.68392 
2.50077 1.99785 2.86558 
2.42328 1.7265 2.86373 
2.47901 1.85201 2.86525 
2.5335 1.99039 2.84574 
2.43874 1.10728 1.89727 
2.46601 1.15705 1.73115 
2.45862 1.15665 1.71995 
2.54368 1.16692 1.89806 
2.66472 1.41962 1.52956 
2.95198 1.70016 1.93803 
2.82044 1.79369 1.46679 
2.6336 1.42997 1.47691 
2.85931 1.53243 1.79273 
2.58024 1.26336 1.65261 
2.54124 1.1816 2.19308 
2.85369 1.48209 1.94536 
2.70333 1.3689 1.67282 
2.65004 1.24547 1.90982 
2.47905 1.18247 1.6804 
2.38483 1.21452 1.51531 
2.67854 1.36597 1.62907 
2.7691 1.36462 1.93079 
2.432 1.12411 1.78507 
2.94606 1.76538 1.77658 
2.35053 1.06921 1.89626 
2.53672 1.15674 1.97102 
2.87333 1.57557 1.76093 
2.3536 1.07005 1.89918 
2.58834 1.2812 1.62963 
2.88881 1.61294 2.24535 
2.48013 1.17076 2.28607 
2.53211 1.21119 1.69237 
2.57943 1.69327 2.7551 
2.4554 1.21557 1.57894 
2.58962 1.19982 1.89021 
2.79783 1.42728 2.18832 
2.53656 1.22651 1.66263 
2.59245 1.26028 1.6809 
2.65585 1.65316 2.67049 
2.5099 1.29099 1.51286 
2.60028 1.24396 2.26089 
2.85087 1.52481 1.7759 
2.43315 1.30358 1.42783 
2.64764 1.32908 1.63884 
2.54739 1.2568 1.61526 
2.71404 1.72558 2.64409 
2.41116 1.17473 1.61285 
2.49084 1.12904 1.97771 
2.96858 1.78135 2.11851 
2.59342 1.19619 1.95831 
2.45185 1.14439 1.7475 
2.80283 1.59009 2.43294 
2.70709 1.42483 1.58865 
2.69352 1.29431 1.85494 
2.75044 1.55947 1.50728 
2.416 1.23076 1.51501 
2.4757 1.18491 1.66934 
2.73147 1.32377 1.91243 
2.87415 1.53424 1.86242 
2.91143 1.59193 2.05264 
2.60605 1.29671 1.6284 
2.67391 1.54712 1.41627 
2.66651 1.69086 2.67838 
2.62749 1.26515 1.7426 
2.7365 1.33172 1.89526 
2.9862 2.01213 1.83491 
2.5112 1.25348 1.57411 
2.65388 1.25509 1.86756 
2.54937 1.19747 1.76731 
2.90834 1.78403 2.35815 
2.52394 1.22216 1.65294 
2.77824 1.40303 1.80514 
2.61222 1.21453 1.90933 
2.90051 1.95198 1.56783 
2.51904 1.21209 1.66864 
2.59799 1.231 1.77409 
2.48013 1.1849 1.67584 
2.92616 1.80615 2.32351 
2.52197 1.1951 1.71771 
2.54592 1.32652 1.5016 
2.56829 1.2059 1.78449 
2.89417 1.71617 2.34628 
2.55195 1.20271 1.7557 
2.45276 1.21571 1.57586 
2.59392 1.20967 1.84953 
2.87798 1.55989 2.18828 
2.50073 1.29513 1.49758 
2.50938 1.2392 1.59787 
2.58955 1.21131 1.82567 
2.9783 1.79577 2.03486 
2.54434 1.33843 1.48423 
2.5116 1.20453 1.67521 
2.76226 2.18425 1.37951 
2.73258 1.83497 2.66037 
2.5143 1.14592 1.92221 
2.6335 1.27058 1.74191 
2.91464 1.77397 1.66481 
2.57088 1.7628 2.78602 
2.66777 1.28851 2.21881 
2.50821 1.23568 1.60309 
2.9605 1.73653 1.91038 
2.5652 1.21209 1.75557 
2.67122 1.27074 1.86721 
2.43634 1.21494 1.56035 
2.98441 1.8302 1.95407 
2.54754 1.19992 1.75491 
2.53551 1.1571 1.94757 
2.8108 2.38512 1.55922 
2.97015 1.94062 2.23511 
2.60191 1.2031 2.05145 
2.50616 1.1508 1.84948 
2.89185 1.7193 1.64529 
2.58467 1.32813 1.54531 
2.5356 1.19218 2.24609 
2.61512 1.23862 1.79526 
2.76725 2.40724 2.49546 
2.58035 1.22682 1.74429 
2.71165 1.38967 1.65207 
2.53661 1.1921 1.75637 
2.99375 1.89177 1.97278 
2.68423 1.34334 1.68277 
2.4763 1.26469 1.51786 
2.44273 1.10392 2.03211 
2.89563 2.09375 2.43481 
2.59668 1.22457 1.79341 
2.56076 1.21617 1.73326 
2.7884 2.13571 1.39999 
2.93491 2.02801 2.35377 
2.44214 1.10932 2.10583 
2.57598 1.1973 1.84534 
2.75864 1.95589 1.34998 
2.88626 1.93676 2.45885 
2.62818 1.29701 1.66654 
2.66829 1.37417 1.59785 
2.83509 1.54135 1.69626 
2.94173 1.87976 2.31415 
2.53194 1.22521 1.65832 
2.5385 1.27655 1.56799 
2.7654 1.37386 1.85131 
2.9294 2.36837 1.97709 
2.66992 1.39874 1.56446 
2.52677 1.26267 1.57708 
2.41859 1.14037 1.70705 
2.87746 2.13039 1.53842 
2.82332 1.69805 2.48059 
2.53606 1.19632 1.74166 
2.68194 1.33411 1.69743 
2.79112 1.38856 2.01671 
2.92122 2.03163 2.38775 
2.6536 1.54336 1.39644 
2.46127 1.16749 1.69316 
2.67675 1.31771 2.27657 
2.83394 1.99906 1.44815 
2.95617 1.75279 2.15693 
2.55357 1.20532 1.75094 
2.52769 1.21288 1.68065 
2.53197 1.27279 1.56622 
2.87973 2.23504 1.58668 
2.68955 1.59706 2.60179 
2.58083 1.22566 1.74893 
2.4861 1.12967 1.92103 
2.49235 1.37771 1.39144 
2.9274 1.66396 2.16436 
2.65 1.52273 1.40863 
2.40708 1.09284 2.10651 
2.58558 1.27974 1.62809 
2.89122 2.44372 1.90597 
2.81027 2.48045 2.33561 
2.58645 1.27117 1.6466 
2.58264 1.19461 1.89107 
2.6541 1.25101 1.89431 
2.67124 2.12982 1.27022 
2.9914 1.90139 1.91393 
2.67658 1.36586 1.62569 
2.38733 1.08625 1.87733 
2.69164 1.27903 1.95725 
2.76588 1.36365 2.09216 
2.96661 2.13238 2.21941 
2.58457 1.46353 1.39133 
2.35317 1.15653 2.40475 
2.72346 1.31238 1.93852 
2.55836 1.18159 1.86423 
2.90122 2.43284 1.97894 
2.33092 1.07283 2.17562 
2.59886 1.34277 1.54238 
2.62568 1.25188 1.77899 
2.473 1.11943 1.9706 
2.80792 2.28295 1.48308 
2.80022 2.38822 2.45709 
2.61116 1.38396 1.50304 
2.53601 1.17347 1.82814 
2.72422 1.31284 1.94244 
2.82549 2.02274 1.43604 
2.88851 2.18023 2.42199 
2.72183 1.65361 1.40085 
2.60117 1.22949 1.78811 
2.7169 1.34795 1.75323 
2.77919 1.54062 2.42642 
2.99234 1.9522 2.11394 
2.64393 1.56803 1.36853 
2.60538 1.2578 1.7125 
2.53028 1.24696 1.61048 
2.48395 1.14293 1.8233 
2.93041 2.09255 1.64535 
2.69554 1.57844 2.58181 
2.62663 1.44563 1.45226 
2.41605 1.09178 2.04517 
2.48663 1.17261 1.71959 
2.5445 1.22861 2.32935 
2.90511 2.12793 2.40548 
2.37722 1.17273 2.41632 
2.61232 1.23871 1.7867 
2.6908 1.35651 1.67027 
2.29121 1.12769 1.60723 
2.90901 2.04049 1.5852 
2.98894 1.85889 1.95426 
2.67081 1.74184 1.30476 
2.73088 1.37474 1.72636 
2.41597 1.1214 1.76544 
2.83595 1.49346 2.21118 
2.89191 2.05808 1.55154 
2.77841 2.08748 2.62163 
2.60948 1.38802 1.496 
2.4357 1.11584 1.83141 
2.5951 1.21708 2.18139 
2.90404 1.63207 2.21755 
2.97208 2.12882 1.80386 
2.40041 1.17037 2.38909 
2.53888 1.45579 1.35701 
2.52549 1.21034 1.68331 
2.45127 1.11593 1.87847 
2.92225 1.76162 2.30434 
2.90524 2.03402 1.57646 
2.51025 1.14011 2.01532 
2.69054 1.55179 1.43232 
2.51336 1.21777 1.64704 
2.58138 1.46405 1.38783 
2.70115 1.47491 2.48236 
2.98451 1.83022 1.9562 
2.75459 2.2472 2.60785 
2.62277 1.73069 1.2654 
2.72155 1.33327 1.81337 
2.85438 1.50921 1.82926 
2.8049 1.46128 2.24883 
2.76969 1.90526 1.36865 
2.96894 1.75464 2.03081 
2.32891 1.16465 2.44047 
2.71046 1.35023 1.72973 
2.84741 1.47277 1.93733 
2.56604 1.17634 1.96566 
2.59417 1.96737 1.19632 
2.97008 1.76463 2.05958 
2.43525 1.24052 2.48348 
2.58684 1.50911 1.35607 
2.74388 1.33578 1.92615 
2.62817 1.34279 1.58349 
2.58783 1.2079 2.16443 
2.8678 1.50848 2.07302 
2.43962 1.17587 2.35714 
2.53091 1.50639 1.31117 
2.55024 1.26756 1.59905 
2.73378 1.51828 1.52092 
2.926 1.63181 2.08338 
2.76102 1.62904 1.4678 
2.64435 1.64049 2.67495 
2.47804 1.27763 2.49966 
2.62292 1.27746 1.70015 
2.9172 1.65602 1.79896 
2.75099 1.34644 2.09416 
2.86816 2.099 1.51369 
2.97649 1.83 2.13254 
2.56209 1.33234 2.48815 
2.63274 1.49829 1.41015 
2.76898 1.3657 1.92035 
2.76107 1.37032 1.84417 
2.46209 1.26057 2.48961 
2.91161 2.04379 1.59128 
2.59032 1.35167 2.48083 
2.25955 1.17441 2.50103 
2.64536 1.2941 1.70809 
2.72464 1.40748 1.64812 
2.80039 1.44588 1.77124 
2.94265 1.86905 1.69298 
2.97918 1.83904 1.87628 
2.3825 1.3193 2.62477 
2.66896 1.50425 1.44617 
2.90946 1.62082 1.8294 
2.85135 1.4801 1.92995 
2.70851 1.33173 2.2268 
2.54935 2.80189 2.23492 
2.64039 1.23968 1.89135 
2.59345 1.81631 1.21637 
2.70679 1.41853 1.59708 
2.93831 1.69367 1.83958 
2.61496 1.21551 2.07998 
2.96498 2.0363 1.74022 
2.95704 2.04053 2.28711 
2.43537 1.14599 2.28481 
2.6752 1.35603 1.64026 
2.7824 1.3775 2.01849 
2.63503 1.30851 1.65564 
2.86434 1.54057 1.79544 
2.91499 2.18729 1.64263 
2.47723 1.37971 2.62249 
2.52982 1.60157 1.2513 
2.63514 1.3366 1.60441 
2.83208 1.44765 2.05049 
2.79053 1.41559 2.18307 
2.9553 1.81221 1.77165 
2.9032 1.80369 2.38171 
2.45848 1.22438 2.43383 
2.80123 1.68617 1.49054 
2.82476 1.44266 1.90434 
2.65538 1.32136 1.66845 
2.69083 1.38076 2.37323 
2.80511 1.40955 1.94374 
2.76862 1.44419 2.3167 
2.2971 1.15594 2.44643 
2.89404 1.60347 1.79155 
2.73225 1.37365 1.73261 
2.75048 1.40561 2.28894 
2.9569 2.28497 1.94398 
2.66181 2.32561 2.67526 
2.40634 1.13628 2.29811 
2.75345 1.35854 1.85562 
2.88805 1.54194 2.03933 
2.83487 1.4861 2.19723 
2.74412 1.78634 1.36705 
2.97705 1.82425 1.87963 
2.59489 1.27434 2.34572 
2.63314 1.43619 1.46967 
2.90425 1.638 1.77353 
2.70988 1.29607 1.97647 
2.60689 1.21702 2.13648 
2.8862 2.12293 2.4467 
2.48881 1.30892 2.53243 
2.63887 1.62212 1.32988 
2.64143 1.2636 1.78489 
2.86104 1.49922 1.91152 
2.70607 1.30702 2.14574 
2.74006 1.92593 2.66845 
2.47641 1.19081 2.34386 
2.39807 1.23143 2.50085 
2.71718 1.33331 1.79708 
2.85809 1.50059 1.88054 
2.61127 1.22986 1.81773 
2.77133 2.1402 1.3792 
2.55562 2.43842 2.70645 
2.46292 1.27098 2.50421 
2.64099 1.69906 1.29391 
2.78497 1.43591 1.74384 
2.91686 1.60707 1.92954 
2.77772 1.51449 2.39929 
2.94602 2.28293 2.15811 
2.58271 1.18743 1.98692 
2.41874 1.15882 2.34217 
2.62609 1.32721 1.60583 
2.78048 1.39426 1.8453 
2.90273 1.57355 1.94321 
2.54568 1.26238 2.39768 
2.99221 2.03129 2.12061 
2.70196 1.32455 2.22586 
2.39727 1.27774 2.56615 
2.76824 1.40825 1.75577 
2.88256 1.54721 1.87326 
2.98059 1.8438 2.11854 
2.87564 2.43844 1.79746 
2.56201 2.30114 2.77036 
2.52615 1.28061 2.45348 
2.68797 1.44588 1.53133 
2.8955 1.65833 1.71479 
2.77643 1.42777 1.73595 
2.71005 1.29768 1.94928 
2.91682 1.74311 2.30571 
2.6312 1.24614 2.18241 
2.39909 1.1942 2.4375 
2.71963 1.55927 1.46345 
2.67137 1.30187 1.75124 
2.87494 1.51614 2.01892 
2.64714 1.44311 2.52066 
2.99163 1.91331 2.09571 
2.55634 1.29461 2.43921 
2.38141 1.32192 2.62827 
2.75667 1.41745 1.7032 
2.92851 1.63078 1.9608 
2.77592 1.40164 1.8002 
2.76136 1.79778 1.38402 
2.8893 2.45291 2.06345 
2.49456 1.18915 2.31295 
2.35315 1.23865 2.54372 
2.8138 1.45326 1.80302 
2.7753 1.40759 1.78099 
2.94006 1.78398 2.26387 
2.67 2.05951 1.26003 
2.74314 2.55375 2.37565 
2.40367 1.11317 2.22492 
2.40579 1.34785 2.64034 
2.74479 1.34664 1.86431 
2.69173 1.34415 1.69773 
2.85814 1.63671 2.36279 
2.61819 2.1421 1.22692 
2.83219 2.4399 2.33755 
2.57157 1.20229 2.19224 
2.37645 1.24917 2.54272 
2.80191 1.4356 1.80408 
2.86674 1.51472 1.88486 
2.58719 1.19852 1.88669 
2.63202 2.02576 1.22548 
2.65618 2.46519 2.59416 
2.70146 1.3405 2.2702 
2.34365 1.23451 2.544 
2.88773 1.60733 1.75971 
2.74177 1.49257 1.56149 
2.74413 1.44996 1.62088 
2.81279 2.18154 1.44645 
2.92659 1.72214 2.25342 
2.69115 1.28197 2.08208 
2.4119 1.2747 2.55162 
2.83276 1.57552 1.64458 
2.82742 1.48803 1.76919 
2.7718 1.4703 2.35179 
2.766 2.26509 1.41437 
2.29661 2.32735 2.89714 
2.75615 1.37659 2.19901 
2.3649 1.30031 2.61423 
2.79326 1.45545 1.7276 
2.85662 1.52531 1.79783 
2.73507 1.34335 2.16879 
2.69494 2.21097 1.31258 
2.33093 2.43262 2.83865 
2.72809 1.38518 2.30311 
2.35245 1.31424 2.6368 
2.68099 1.34312 1.67634 
2.99614 1.9512 1.92707 
2.59987 1.23855 2.24564 
2.84073 2.51557 1.83459 
2.89816 1.56561 2.06801 
2.84286 1.48624 2.16015 
2.78646 2.01827 1.38264 
2.82559 1.60993 1.59227 
2.95904 1.72424 2.0648 
2.74627 2.09358 1.34097 
2.46976 2.23954 2.84968 
2.61094 1.43111 2.55056 
2.40271 1.27122 2.55381 
2.75417 1.42215 1.68804 
2.77413 1.36798 1.9644 
2.83405 1.5732 2.34958 
2.99656 2.08064 2.01902 
2.73061 1.50093 2.46598 
2.3685 1.33315 2.6477 
2.77397 1.89174 1.3761 
2.77001 1.36325 2.04036 
2.649 1.26052 1.82122 
2.98906 2.13655 2.05587 
2.98855 2.03912 2.14571 
2.84305 1.68457 2.43563 
2.6187 1.64395 1.29969 
2.87113 1.58944 1.73059 
2.80533 1.41147 1.92882 
2.93243 2.16315 1.67756 
2.81014 1.43267 2.14771 
2.42251 1.09372 2.01214 
2.3153 1.41361 2.74615 
2.80028 1.44399 1.77548 
2.86216 1.54561 1.77593 
2.91229 2.23601 1.66529 
2.71585 1.34373 2.23847 
2.76652 1.44315 2.31993 
2.30203 1.26835 2.61112 
2.88658 1.56861 1.83301 
2.8773 1.60881 1.72194 
2.74418 2.45769 1.51345 
2.63736 1.33625 2.39141 
2.84072 1.4988 2.20491 
2.32904 1.36238 2.69655 
2.96856 1.8733 1.78591 
2.81908 1.55197 1.64169 
2.87267 2.45833 1.83152 
2.74372 1.33675 2.08352 
2.82016 1.44641 2.14449 
2.29847 1.33814 2.68765 
2.94364 1.74006 1.79511 
2.90754 1.60758 1.85044 
2.88484 2.42453 1.80807 
2.90732 1.59068 2.09605 
2.70179 1.28856 2.03662 
2.31752 1.471 2.78698 
2.75622 1.44488 1.65363 
2.87313 1.51508 1.94995 
2.70567 2.69963 2.112 
2.86288 1.49931 2.06897 
2.54507 1.44614 2.62939 
2.28903 1.28848 2.64046 
2.76275 1.35464 2.04145 
2.97189 1.78775 2.10192 
2.96569 1.84954 1.78834 
2.72352 1.3685 2.27879 
2.55557 1.29726 2.4444 
2.29256 1.41162 2.7538 
2.76093 1.41112 1.72759 
2.7805 1.37486 1.99487 
2.71048 2.35205 2.60933 
2.70684 1.29821 2.08874 
2.55877 1.33562 2.49636 
2.75569 1.81084 1.37298 
2.94573 1.79046 1.75164 
2.83847 1.66685 2.43126 
2.56323 2.37872 2.7344 
2.87724 1.57947 2.23152 
2.39716 1.38483 2.68105 
2.89866 1.64704 1.73955 
2.82645 1.48867 1.76436 
2.41398 1.21083 2.45368 
2.7984 1.40769 2.10829 
2.732 1.44042 2.38865 
2.36232 1.35899 2.67663 
2.88427 1.80235 1.57692 
2.52767 1.15536 2.09029 
2.77127 2.63651 1.99758 
2.81963 1.55721 2.36352 
2.74704 1.34843 2.13187 
2.32341 1.34285 2.68085 
2.80227 1.42999 1.82269 
2.66477 1.26907 2.15436 
2.93387 2.33611 2.12211 
2.7065 1.29516 2.06363 
2.80572 2.1641 2.56911 
2.41809 1.11553 1.79286 
2.83024 1.57024 1.64502 
2.90212 1.56855 2.00422 
2.84379 2.53612 1.97583 
2.86436 1.56307 2.24894 
2.49797 1.56328 2.7492 
2.45134 1.55006 2.77061 
2.69052 1.49644 1.48076 
2.90231 1.75781 1.64336 
2.63552 1.25325 2.19615 
2.37381 2.03946 2.92666 
2.72862 1.66071 2.59498 
2.49956 1.43028 2.65258 
2.5795 1.19524 2.12863 
2.93435 2.11124 1.66145 
2.98009 1.82935 2.10146 
2.80146 2.43701 2.40827 
2.64986 1.27018 2.21223 
2.52371 1.17028 2.19311 
2.36147 1.33096 2.6494 
2.7275 1.49578 1.5347 
2.80071 1.40501 1.93035 
2.63755 1.29543 2.31163 
2.78716 1.38876 2.08227 
2.93594 1.65183 2.05288 
2.39625 1.24379 2.5207 
2.44969 1.32269 1.41774 
2.83426 1.50826 1.75059 
2.78072 1.65499 2.521 
2.68151 1.26823 1.99264 
2.8984 1.62872 2.23456 
2.60277 1.2379 2.23636 
2.40348 1.43295 2.71809 
2.75254 1.81038 1.36935 
2.88621 1.67898 1.66596 
2.91236 1.60476 2.10675 
2.75728 2.39593 2.51939 
2.79483 1.41225 2.15101 
2.52451 1.8012 2.82787 
2.45233 1.2386 1.53559 
2.88644 1.69664 1.65044 
2.76083 1.6815 1.43458 
2.84225 1.69413 2.44391 
2.76415 1.36264 2.09924 
2.60869 1.23862 2.22316 
2.5789 1.35541 2.49937 
2.68477 1.46357 1.50671 
2.89524 1.7661 1.62074 
2.95321 1.82032 1.75689 
2.91443 1.90923 2.39444 
2.84029 1.46936 2.11107 
2.65304 1.25674 2.14526 
2.39749 1.22065 2.48437 
2.61779 1.40512 1.48575 
2.92294 1.74086 1.71534 
2.87381 1.99057 1.51383 
2.76714 1.49513 2.39573 
2.65356 1.26987 2.19942 
2.72596 1.37754 2.29245 
2.55911 1.42212 2.59452 
2.59572 1.20872 1.86218 
2.90189 1.74694 1.64992 
2.73687 1.33351 1.88678 
2.69885 1.39332 2.37887 
2.93236 1.66601 2.13844 
2.72799 1.32112 2.09566 
2.67467 1.57512 2.60357 
2.80718 1.52069 1.65543 
2.80672 1.66005 1.51664 
2.76107 1.43043 1.68958 
2.51868 1.40848 2.61732 
2.88375 1.64386 2.30357 
2.66079 1.29387 2.25445 
2.36038 1.29026 2.60531 
2.63948 1.24173 2.1269 
2.93218 1.75552 1.73304 
2.89995 1.591 1.84896 
2.45105 1.49097 2.73311 
2.86511 1.58052 2.275 
2.70746 1.49442 2.49385 
2.52091 1.20972 1.67734 
2.80098 1.54341 1.61276 
2.88378 1.55399 2.14147 
2.65934 1.32017 2.32111 
2.66442 1.25456 1.94647 
2.93019 1.74406 2.26314 
2.38476 1.43194 2.72751 
2.76115 1.62988 1.4674 
2.96391 1.79002 1.83634 
2.64623 1.3633 2.42071 
2.79725 1.40931 2.12438 
2.73565 1.35123 1.80528 
2.39807 1.35488 2.65219 
2.42606 1.10847 2.15381 
2.81236 1.43401 1.85958 
2.75302 1.34207 2.00941 
2.42161 1.12251 2.22861 
2.74853 1.34087 2.07254 
2.56769 1.2208 2.26568 
2.59106 1.51814 1.35312 
2.82589 1.92129 1.44169 
2.88987 1.55099 1.91927 
2.55738 1.49335 2.65775 
2.94257 1.73288 2.2005 
2.76197 1.35918 2.09354 
2.3734 1.57485 2.82451 
2.84594 1.72711 1.54183 
2.91025 1.61682 1.84313 
2.83427 1.48533 2.19777 
2.42057 1.21361 2.45244 
2.76224 1.57512 2.48832 
2.58248 1.30672 2.42436 
2.85522 1.67976 1.59251 
2.84031 1.56375 1.67819 
2.83559 1.47594 2.16477 
2.67973 1.33202 2.30292 
2.79049 1.44984 2.26918 
2.79651 1.47669 2.30285 
2.84299 1.77572 1.51105 
2.79772 1.85092 1.41569 
2.81172 1.46704 1.76114 
2.93673 1.67034 2.11775 
2.67036 1.43365 2.47944 
2.77053 1.54726 2.44867 
2.3592 1.3331 2.65285 
2.41104 1.34368 2.63268 
2.9278 1.68217 1.80462 
2.97347 1.85038 2.17314 
2.75927 1.37111 2.16735 
2.84964 1.80526 2.49009 
2.66358 1.25216 2.01978 
2.45818 1.27874 1.48053 
2.6628 1.58955 1.37372 
2.85387 1.59488 1.67321 
2.71427 1.42705 2.40192 
2.68456 1.7074 2.66766 
2.78421 1.41684 2.21197 
2.61126 1.66609 2.71754 
2.61143 1.5827 1.32768 
2.75362 1.60918 1.4715 
2.9114 1.58857 1.99145 
2.71815 1.32813 2.18122 
2.95695 1.79768 2.20812 
2.80867 1.69038 2.50018 
2.33415 1.29436 2.62483 
2.83122 1.45696 1.88093 
2.92168 1.6583 1.81627 
2.92903 1.65575 1.86437 
2.65782 1.26522 2.16546 
2.66398 1.30204 2.2683 
2.96213 1.82701 2.21068 
2.52549 1.43569 1.36328 
2.89647 1.64475 1.73514 
2.90157 1.60732 1.81841 
2.98854 1.86188 1.93902 
2.92578 1.77256 1.69799 
2.78586 1.39351 1.87919 
2.60817 1.26751 2.30593 
2.67196 1.57359 1.39448 
2.53935 1.17621 2.17456 
2.92339 1.62675 1.91031 
2.96963 1.7595 2.04455 
2.88393 1.58133 2.20832 
2.75049 1.60597 2.53057 
2.66149 1.25139 2.04495 
2.61076 1.49636 1.38901 
2.67565 1.64147 1.35583 
2.94115 1.68961 1.86622 
2.95284 1.69728 2.02136 
2.94694 1.68953 1.91689 
2.77038 1.74631 2.58495 
2.6851 1.31502 2.24786 
2.63418 1.5382 1.37987 
2.64983 1.50709 1.42142 
2.94982 1.73006 1.84198 
2.97963 1.80966 1.93595 
2.80806 1.5092 2.32581 
2.39027 1.28415 2.579 
2.77311 1.49242 2.38036 
2.55637 1.25496 2.36792 
2.86861 1.75855 1.56732 
2.9312 1.75128 1.73355 
2.87053 1.59932 1.71427 
2.91467 1.60029 2.06013 
2.97289 1.8383 2.16532 
2.90673 1.58411 1.93015 
2.52739 1.1908 2.25895 
2.39859 1.69717 2.86569 
2.85389 1.50894 1.82755 
2.8784 1.5507 1.83709 
2.9858 1.8516 1.92142 
2.98589 1.89083 1.87311 
2.90956 2.37983 2.16862 
2.65842 1.38116 2.42839 
2.83723 1.48493 2.18372 
2.74982 1.61404 1.4626 
2.89472 1.76561 1.61982 
2.95277 1.86884 1.72608 
2.93325 1.73459 1.75795 
2.78455 1.47112 1.67631 
2.37008 1.10684 1.74447 
2.77666 1.37118 2.03732 
2.42796 1.58682 2.80382 
2.82634 1.57259 1.63327 
2.98587 1.85695 1.91286 
2.93403 1.68338 1.83467 
2.82145 1.46764 2.20448 
2.96779 2.08881 2.23558 
2.95355 1.69946 2.02046 
2.69308 1.61591 2.61001 
2.82071 1.83289 1.45364 
2.67387 1.60274 1.37704 
2.82736 1.50011 1.74392 
2.88878 1.55708 1.88212 
2.87975 1.52804 2.05728 
2.81364 1.46544 2.22856 
2.68472 1.53369 2.5601 
2.77315 1.60039 2.4925 
2.91914 1.64779 1.82355 
2.89139 1.69082 1.6686 
2.901 1.68288 1.70397 
2.96678 1.77974 2.12973 
2.75073 1.39041 2.25456 
2.80793 2.1241 2.57606 
2.82989 1.50162 2.25081 
2.76255 2.03572 1.35406 
2.84823 1.54163 2.26535 
2.92409 1.64466 1.85932 
2.90381 1.64386 1.76272 
2.95079 2.26773 1.84404 
2.73355 1.35045 1.80003 
2.64744 1.46029 2.53809 
2.50593 1.27256 2.46353 
2.80659 1.6949 1.49372 
2.95581 1.8798 1.7317 
2.91173 1.58926 1.99412 
2.93309 1.64114 1.9762 
2.88873 1.77638 2.4002 
2.3938 1.19219 2.4386 
2.8382 1.46382 2.09961 
2.77018 1.52109 2.42127 
2.9207 1.68554 1.76886 
2.86865 1.72588 1.58732 
2.85119 1.60116 1.65883 
2.73212 1.39539 1.68625 
2.87162 1.63966 2.33231 
2.37016 1.26169 2.56381 
2.9344 1.64485 1.97239 
2.62919 1.44808 2.54727 
2.83989 1.56653 1.67337 
2.83587 1.7003 1.54011 
2.92509 1.68144 1.79331 
2.72206 1.31269 1.921 
2.9276 1.65067 2.13235 
2.5531 1.46984 2.64267 
2.64179 1.31127 2.33727 
2.75603 1.4471 2.35031 
2.85655 2.11039 1.49587 
2.66138 1.957 1.25118 
2.93263 1.73999 1.74983 
2.91598 1.64038 1.82206 
2.88273 1.54292 2.10895 
2.85183 1.48733 2.1075 
2.76204 1.39675 2.23532 
2.87793 1.54311 2.14315 
2.86531 1.87362 1.51496 
2.44197 1.34904 2.61719 
2.87252 1.54431 1.82379 
2.93093 1.65343 1.88488 
2.99493 2.1005 1.99753 
2.7516 1.36139 2.16514 
2.92218 1.78943 2.32442 
2.66031 1.37272 2.41294 
2.82487 1.94257 1.4376 
2.75416 1.75083 2.60759 
2.81706 1.55928 1.62828 
2.89641 1.62698 1.7606 
2.89507 1.55432 2.01483 
2.86741 1.79965 2.45547 
2.95724 1.71853 2.06687 
2.78652 1.61941 2.48635 
2.53116 1.25156 2.39712 
2.98453 2.10403 1.85899 
2.80632 1.55058 1.61546 
2.94498 1.71648 1.8368 
2.94587 1.67673 2.0286 
2.91336 1.61915 2.14398 
2.4424 1.5835 2.79424 
2.63465 1.53689 2.61867 
2.91683 2.03428 2.39781 
2.76548 1.86785 1.37026 
2.69014 1.80292 1.30367 
2.93517 1.66248 1.89257 
2.78589 1.40803 1.82128 
2.92866 1.65589 1.86152 
2.80248 1.96841 2.59585 
2.63804 1.73596 2.72332 
2.77761 1.88947 2.61896 
2.94632 2.05385 1.68128 
2.78915 1.48029 2.32733 
2.82277 1.50689 1.71734 
2.90413 1.63223 1.78254 
2.80395 1.4765 1.71784 
2.86495 1.49998 1.95707 
2.97506 1.78085 1.96495 
2.83819 1.55301 2.31246 
2.33857 1.65339 2.87478 
2.76966 1.67805 1.44866 
2.93881 1.85771 1.68633 
2.94623 1.84105 1.71824 
2.93096 1.63488 2.00073 
2.99354 1.89301 2.03779 
2.85791 1.52778 2.20247 
2.9003 1.69128 2.30685 
2.87216 1.79488 2.44414 
2.90215 2.15534 1.59752 
2.7972 1.97206 1.39693 
2.9574 1.75281 1.85073 
2.98652 1.83967 2.03287 
2.97876 1.79652 1.97503 
2.64731 1.33384 2.37042 
2.65669 1.26953 2.18754 
2.86731 1.76489 2.43875 
2.77767 2.18208 1.39827 
2.78111 1.44317 1.71752 
2.95313 1.7432 1.83999 
2.90573 1.7009 1.69967 
2.95708 1.72925 2.10338 
2.9749 2.19819 1.89855 
2.68773 1.27412 2.01081 
2.58881 1.59567 2.69987 
2.55653 1.40663 2.58155 
2.87688 1.81169 2.4423 
2.81854 1.57156 1.61733 
2.93209 1.74928 1.73855 
2.93089 1.65071 2.10695 
2.94773 1.69721 2.10066 
2.7983 1.42885 2.19107 
2.78138 1.62511 2.49891 
2.55689 1.41826 2.59283 
2.97454 1.87848 1.81157 
2.87536 1.66557 1.65086 
2.96338 1.80602 1.81485 
2.94902 1.70215 2.10323 
2.79499 1.43489 2.22058 
2.68599 1.2724 1.99597 
2.7578 1.64797 2.54937 
2.73138 1.50396 2.46801 
2.84261 2.14074 1.48019 
2.87181 1.96728 1.51126 
2.86911 1.55765 1.77868 
2.94045 1.67642 1.89583 
2.82215 1.43243 2.04383 
2.9866 1.84302 2.04453 
2.61865 1.3114 2.37828 
2.76053 1.53172 2.44978 
2.81513 2.23163 1.46905 
2.93075 2.0334 2.36414 
2.80481 1.42889 1.83841 
2.96975 1.83519 1.81995 
2.86791 1.58843 1.7219 
2.91604 1.6699 2.22784 
2.83991 1.73079 2.47125 
2.7828 1.41542 2.21327 
2.55134 1.39214 2.57143 
2.92379 1.88811 2.36618 
2.97546 1.83753 1.8514 
2.98589 1.84639 1.93346 
2.91535 1.59741 1.99299 
2.94288 1.81965 1.71992 
2.78114 1.69489 2.54472 
2.79273 1.67637 2.51658 
2.77973 1.8458 2.60683 
2.85171 2.18663 1.51036 
2.68826 1.87006 1.28627 
2.89262 1.60011 1.79189 
2.99123 2.0437 1.87526 
2.89358 1.55118 1.99187 
2.83129 1.4468 2.0541 
2.99246 2.02682 2.11962 
2.94437 1.68556 2.09638 
2.84526 1.61442 2.36995 
2.77831 2.21857 1.4114 
2.80186 1.71613 1.47422 
2.8715 1.62672 1.68196 
2.99545 2.09486 2.00838 
2.94976 1.68986 1.9579 
2.6257 1.44214 2.54525 
2.90422 1.86023 2.40354 
2.57082 1.37702 2.53485 
2.54136 1.53769 2.70228 
2.9098 2.24954 1.66834 
2.9676 1.84807 1.79836 
2.97461 1.79688 1.90579 
2.9837 1.84641 2.09349 
2.97517 1.80241 2.09998 
2.92023 1.65052 2.17617 
2.66034 1.69091 2.68441 
2.5238 1.63445 2.76942 
2.41467 1.48909 2.75301 
2.99144 2.13044 2.00528 
2.95221 1.84225 1.73845 
2.96518 1.76443 1.88625 
2.86604 1.50354 2.05917 
2.73955 1.32716 2.01866 
2.66628 1.33202 2.33147 
2.78899 1.66267 2.51352 
2.56852 1.3332 2.48183 
2.84103 2.40461 1.64089 
2.78006 2.46053 1.57642 
2.94025 1.74847 1.7705 
2.96475 1.73878 1.9679 
2.94543 1.74497 2.20278 
2.84373 1.66331 2.41804 
2.94904 1.87018 2.28719 
2.86405 1.49941 1.94677 
2.61958 1.63369 2.69422 
2.9662 2.23774 1.9003 
2.8968 1.61534 1.78138 
2.95368 1.9538 1.70275 
2.99836 1.94385 2.0108 
2.98178 1.99162 2.18983 
2.54509 1.47713 2.65535 
2.87427 1.63824 2.3237 
2.77989 1.45781 2.31272 
2.48762 1.37026 2.60469 
2.96759 2.12821 1.78242 
2.92794 1.74613 1.72711 
2.92889 1.66238 1.84779 
2.92394 1.73039 1.72863 
2.898 1.67689 2.29866 
2.8713 2.1375 2.47109 
2.80076 1.45325 2.24463 
2.69767 1.63691 2.61759 
2.7987 2.2532 1.45414 
2.64081 1.5415 1.38426 
2.95816 1.72955 1.9063 
2.8811 1.53119 2.0623 
2.91934 1.83266 2.3561 
2.62868 1.85432 2.76389 
2.89973 1.85039 2.41001 
2.78661 1.50823 2.37338 
2.44266 1.28981 2.54743 
2.75374 2.58867 2.29214 
2.97665 1.81607 1.88895 
2.96964 1.75724 1.97036 
2.89749 1.55933 1.98205 
2.96363 1.73351 1.97984 
2.71559 1.40158 2.3603 
2.83546 1.51988 2.26738 
2.7981 1.61029 2.45952 
2.35225 1.78366 2.91056 
2.80248 2.27369 1.46979 
2.99287 1.93346 1.90112 
2.92088 1.73745 1.71182 
2.9276 1.63173 2.06273 
2.771 1.45569 2.33059 
2.97964 1.80627 1.94734 
2.64786 1.4307 2.50613 
2.61125 1.70345 2.73378 
2.89365 2.44874 1.99548 
2.89185 1.68372 1.67663 
2.9063 1.75421 1.65617 
2.98607 1.83465 2.01822 
2.90786 1.59153 2.09461 
2.43521 1.93355 2.89787 
2.7957 1.64407 2.49007 
2.5554 1.57479 2.71465 
2.55995 1.71753 2.77889 
2.99907 1.98661 1.95898 
2.9116 1.6977 1.72145 
2.89845 1.65163 1.73273 
2.98722 1.84081 1.99267 
2.76163 1.60178 2.51122 
2.81241 1.4913 2.285 
2.79353 1.77496 2.5654 
2.65255 1.58069 2.63116 
2.43904 1.54334 2.77376 
2.94519 2.15777 1.71413 
2.85052 1.61129 1.64571 
2.94 1.75868 1.75883 
2.90745 1.58232 1.95443 
2.57673 1.7541 2.77905 
2.88447 1.53383 1.97987 
2.82975 1.50628 2.2603 
2.77337 1.61537 2.50394 
2.83044 2.50777 1.7708 
2.9548 1.8628 1.73629 
2.91166 1.80022 1.64089 
2.97028 1.8285 1.82929 
2.89524 1.63071 1.75066 
2.95544 1.76367 1.82314 
2.88994 1.81668 2.41762 
2.76277 1.51063 2.42273 
2.4242 1.45265 2.72143 
2.86095 1.68763 1.59851 
2.85808 1.57213 1.71604 
2.87829 1.55231 1.83216 
2.88903 1.58158 1.81411 
2.74203 2.26157 2.61724 
2.7612 1.47459 2.38015 
2.96758 1.76823 2.10034 
2.76141 1.46601 2.36757 
2.70536 2.64477 1.70548 
2.92099 1.75818 1.69456 
2.81718 1.56526 1.62156 
2.98552 1.83044 1.99909 
2.75847 1.42692 2.31034 
2.91739 1.86769 2.37535 
2.76337 1.56561 2.4781 
2.89491 1.7853 2.3912 
2.43118 1.63665 2.82587 
2.84276 1.4723 1.89376 
2.95511 1.80715 1.77512 
2.99729 1.99313 1.92676 
2.98068 1.80665 1.97035 
2.99132 1.94679 2.12023 
2.79984 1.89437 2.59084 
2.86401 1.50178 2.07252 
2.65747 1.66214 2.67348 
2.80496 2.58856 1.92492 
2.8262 1.7853 1.47914 
2.91501 1.7997 1.64979 
2.97812 1.80257 1.93443 
2.94931 1.69023 2.05346 
2.59087 1.63699 2.72049 
2.86313 1.74892 2.43814 
2.9348 1.84468 2.31941 
2.61011 1.59842 2.68301 
2.76118 2.58285 2.28443 
2.82817 1.60354 1.60383 
2.88482 1.59076 1.77726 
2.88657 1.58449 1.79664 
2.95748 1.90118 2.27104 
2.91698 1.61311 1.90277 
2.73006 1.7727 2.64447 
2.95623 1.88797 2.27031 
2.50738 1.4284 2.64486 
2.66517 1.33552 1.65939 
2.98772 1.87354 1.90827 
2.97493 1.80193 2.10142 
2.99488 1.91957 1.93884 
2.81499 2.00776 2.57943 
2.75162 1.53219 2.465 
2.99089 1.92985 1.88504 
2.69771 1.81163 2.69117 
2.67157 2.65511 1.65385 
2.92262 1.77434 1.68718 
2.96795 1.80002 1.84806 
2.9296 1.7256 1.75392 
2.93044 1.90515 2.35395 
2.3959 1.94638 2.91673 
2.98694 2.0238 1.84065 
2.66966 1.64925 2.65462 
2.77271 2.09579 1.37251 
2.94516 1.75058 1.78914 
2.95358 1.77959 1.7948 
2.93366 1.78401 1.71429 
2.96998 1.91305 2.22711 
2.96234 2.27073 2.02465 
2.91556 1.6283 2.15355 
2.65716 1.74801 2.71039 
2.62736 1.49169 1.41005 
2.9426 1.79961 1.73291 
2.95527 1.74109 1.85707 
2.97979 1.80605 1.95102 
2.9393 1.67367 1.89401 
2.95196 1.76537 2.19677 
2.78061 1.65295 2.51982 
2.63273 1.73589 2.72795 
2.69247 1.53386 1.44936 
2.9677 1.83969 1.80541 
2.90617 1.6626 1.74501 
2.97085 1.79308 2.12099 
2.85084 1.5523 2.27503 
2.62978 1.55521 2.63682 
2.77139 1.67394 2.54648 
2.57025 1.60184 2.71853 
2.89622 1.55639 1.99997 
2.97443 1.78869 1.9236 
2.94104 1.83053 1.70722 
2.9529 1.80448 2.23186 
2.95313 1.88879 2.28139 
2.75409 1.5856 2.50952 
2.73321 1.7763 2.64216 
2.5731 1.48787 1.36025 
2.88295 2.00855 1.53061 
2.98979 1.99784 1.85751 
2.9667 1.79269 1.84995 
2.92295 1.84359 2.3517 
2.68619 1.73044 2.67564 
2.75288 1.69957 2.58559 
2.54225 1.63457 2.75658 
2.56271 1.30914 1.54605 
2.97513 1.7973 1.91037 
2.99661 1.97922 1.92035 
2.99838 1.94998 2.02722 
2.93418 1.65741 2.09974 
2.90559 1.58342 1.92019 
2.87486 1.90397 2.47476 
2.41137 1.93439 2.90911 
2.74867 1.39172 1.73639 
2.88954 1.56795 1.85149 
2.89788 1.64188 1.74393 
2.96863 1.89126 1.77657 
2.87201 1.54913 1.80943 
2.89782 1.65952 2.27929 
2.55566 1.53612 2.68997 
2.5934 1.64506 1.27758 
2.86 1.8738 1.50556 
2.9302 1.70668 1.77933 
2.97114 1.78167 1.90394 
2.94105 1.68431 2.12149 
2.67962 2.12993 2.72197 
2.8437 1.82735 2.5083 
2.63365 1.63457 2.68187 
2.63923 1.60249 1.34169 
2.9704 2.02158 1.75947 
2.96516 1.8118 1.81819 
2.9483 1.75297 1.80075 
2.97416 1.77827 1.95713 
2.61717 1.33621 2.42248 
2.82207 1.45986 2.18017 
2.62441 1.83664 2.76382 
2.70371 1.4259 1.58144 
2.98473 1.91645 1.84726 
2.88305 1.64821 1.68942 
2.9164 1.63205 1.84246 
2.94305 1.78238 1.74841 
2.89407 1.7685 2.38346 
2.58207 1.74905 2.77345 
2.70344 1.71866 1.3473 
2.97865 1.94897 1.80088 
2.93798 2.06248 1.65899 
2.97774 1.82821 1.87951 
2.96421 1.76588 2.12445 
2.69401 1.49858 2.51666 
2.71696 1.78159 2.66202 
2.65044 1.72071 2.70635 
2.75219 1.4956 1.57599 
2.99601 1.93894 1.93489 
2.92245 1.70373 1.7524 
2.99405 1.90964 2.06083 
2.72535 1.78993 2.65554 
2.90687 1.61146 2.16318 
2.81241 1.78571 2.54228 
2.86822 1.76172 1.56478 
2.96272 2.14443 1.77128 
2.9804 1.82792 1.90405 
2.97454 1.77604 1.98949 
2.96241 1.86261 2.2343 
2.99577 2.0686 1.93891 
2.92163 1.89616 2.37391 
2.52233 1.51295 2.69997 
2.58533 1.21974 1.77961 
2.94755 1.82284 1.73397 
2.99461 1.91532 2.0598 
2.98805 1.85218 2.04359 
2.8585 2.3451 2.37933 
2.87838 2.15581 2.45186 
2.64876 1.68206 2.69139 
2.66945 1.56306 1.39923 
2.91844 1.97805 1.60506 
2.99307 1.90367 1.93262 
2.92349 1.65366 1.83505 
2.97013 1.89241 2.21743 
2.94053 2.00783 2.33962 
2.60407 1.8752 2.7871 
2.857 1.66588 2.39232 
2.72783 1.59217 1.4487 
2.97524 1.80663 1.89272 
2.953 1.75433 1.82272 
2.99561 1.91866 1.95375 
2.99226 1.89468 2.06587 
2.95184 1.74619 1.82803 
2.96387 1.74205 2.06636 
2.46813 1.56011 2.76639 
2.64147 1.39848 1.52389 
2.96158 1.76189 1.8634 
2.97421 1.8777 1.81038 
2.98637 1.87857 2.11104 
2.92253 1.72045 2.26607 
2.97046 1.95104 1.76376 
2.63078 1.77528 2.74271 
2.66415 1.62769 1.3517 
2.87883 2.10058 1.53359 
2.98506 2.0315 1.83071 
2.98799 1.86586 1.92335 
2.98292 1.81678 2.01737 
2.85274 1.60393 2.34053 
2.87906 1.6853 2.35808 
2.55149 1.66431 2.76365 
2.63809 1.43576 1.4761 
2.95822 1.81785 1.77947 
2.98976 1.87459 1.93175 
2.98964 1.90215 1.89493 
2.76262 1.74292 2.59357 
2.96054 2.2635 2.08904 
2.65249 1.51764 2.58446 
2.41607 1.79136 2.88507 
2.60222 1.31155 1.59582 
2.96621 1.95976 1.7454 
2.94986 1.8167 1.7467 
2.99941 1.97323 2.02172 
2.93068 1.74467 2.26197 
2.8147 1.99687 2.57988 
2.60091 1.82315 2.7795 
2.67766 1.69303 1.33176 
2.56746 1.33547 1.5138 
2.96351 1.85798 1.77311 
2.9266 1.66804 1.82335 
2.97755 1.98144 1.79012 
2.98708 1.93937 2.14833 
2.56644 1.48392 2.6425 
2.55049 1.75022 2.7966 
2.67212 1.69094 1.32715 
2.46258 1.26554 1.50343 
2.98182 1.83078 1.91407 
2.95444 1.7516 1.83464 
2.96646 1.87578 2.22477 
2.8888 1.99351 2.45824 
2.91606 1.60294 2.05637 
2.66968 1.61045 2.63228 
2.65832 1.62783 1.34571 
2.47126 1.19084 1.64903 
2.98034 1.81773 1.92445 
2.99934 2.00672 2.03574 
2.93179 1.66651 2.14337 
2.93648 1.96506 2.34898 
2.92254 1.6781 2.21283 
2.58638 1.46116 2.60482 
2.73617 1.70899 1.38896 
2.4715 1.24669 1.54151 
2.99159 1.92903 1.89177 
2.99755 2.0066 1.93042 
2.97313 1.79611 1.89301 
2.897 1.7708 2.37797 
2.93968 1.87198 2.31721 
2.5273 1.60533 2.75246 
2.71572 1.74183 1.35108 
2.45361 1.2861 1.46653 
2.97277 1.85733 1.81736 
2.99413 1.94321 1.90792 
2.89363 2.15949 2.4195 
2.7914 1.7696 2.56622 
2.7962 1.84878 2.58583 
2.51243 1.66724 2.79163 
2.66061 1.62492 1.34969 
2.48514 1.3544 1.41022 
2.9627 1.85771 1.76986 
2.98835 1.89077 1.89403 
2.87821 2.21506 2.4272 
2.93285 1.69149 2.18606 
2.91581 2.18705 2.35541 
2.65761 1.99116 2.7533 
2.71357 1.80495 1.32712 
2.50184 1.3832 1.39361 
2.98674 1.92381 2.14329 
2.99799 1.98085 2.0604 
2.97421 2.16783 2.15084 
2.8291 1.65624 2.44093 
2.9682 1.88743 2.2234 
2.63761 2.04035 2.7693 
2.64187 2.06928 1.23632 
2.48698 1.42258 1.34468 
2.93447 1.83198 1.6861 
2.99534 1.97807 1.90606 
2.98708 1.96954 2.15731 
2.95401 1.75227 2.16881 
2.81388 1.51017 2.31252 
2.76133 1.9402 2.6456 
2.45926 1.87556 2.87954 
2.71909 1.58807 1.44034 
2.86885 1.90745 1.51365 
2.93622 1.73838 1.76538 
2.99857 1.97522 2.04733 
2.99333 1.96339 2.10933 
2.7888 2.16181 2.59297 
2.91431 1.73649 2.30757 
2.46762 1.65328 2.81309 
2.642 1.63079 1.32805 
2.53594 1.48993 1.32725 
2.96934 1.94233 1.76113 
2.99473 1.94318 1.9146 
2.9465 1.87659 1.70182 
2.91124 2.20566 2.35686 
2.63998 1.8847 2.75969 
2.70588 2.01862 2.70809 
2.59029 1.72229 1.24209 
2.59628 1.65948 1.27302 
2.9701 1.98184 1.75797 
2.98588 1.87878 1.88445 
2.9966 2.00173 2.08242 
2.96713 1.74712 2.02656 
2.88948 1.85285 2.43264 
2.5382 1.90856 2.83784 
2.62436 1.77588 2.74829 
2.7675 1.55856 1.53516 
2.83006 2.10649 1.45259 
2.94956 1.75755 1.80111 
2.99841 2.00933 1.94443 
2.98073 1.89703 2.16603 
2.77032 1.58536 2.48445 
2.78752 1.75716 2.56643 
2.77699 1.68141 2.54294 
2.66922 1.80134 1.28398 
2.64997 1.95236 1.24154 
2.97262 1.97013 1.76953 
2.98779 1.86553 1.92131 
2.99987 2.01004 2.01235 
2.88204 1.5295 2.02511 
2.94958 1.88759 2.29267 
2.61669 1.84752 2.7723 
2.58918 1.9436 1.19397 
2.59652 1.50823 1.36571 
2.98947 1.95807 1.86147 
2.99727 2.06168 2.04059 
2.99606 1.9272 1.94934 
2.99799 1.96314 2.05149 
2.94308 1.85185 2.29774 
2.71968 1.83008 2.6732 
2.62989 1.53613 2.62295 
2.77407 1.66703 1.46153 
2.88127 1.97833 1.52788 
2.98062 1.92209 1.82022 
2.99033 2.12907 1.94913 
2.99811 2.06137 2.00354 
2.90042 1.83151 2.40106 
2.97339 1.82575 2.14884 
2.55352 1.94206 2.83082 
2.63776 1.66386 1.30699 
2.56182 1.46054 1.37283 
2.98506 2.05118 1.83554 
2.96686 2.06559 1.75326 
2.99794 1.93644 2.00842 
2.83744 2.11857 2.5335 
2.92882 1.9939 2.37048 
2.6233 1.84565 2.7666 
2.45809 1.6332 2.8097 
2.61404 1.45069 1.43324 
2.95218 1.89576 1.71281 
2.99171 1.98818 1.87203 
2.9956 1.90974 1.97486 
2.96186 1.82411 2.20947 
2.75407 1.78617 2.62101 
2.98356 1.8828 2.13738 
2.78973 1.73445 2.55299 
2.68933 1.85147 1.29094 
2.63644 1.77311 1.2628 
2.97826 1.97654 1.79396 
2.97235 2.01063 1.76672 
2.99671 1.94614 2.06055 
2.98904 2.09301 2.11465 
2.88871 2.34501 2.30193 
2.56466 1.90904 2.82029 
2.41901 1.87105 2.89878 
2.7442 1.84177 1.35105 
2.9837 2.0161 1.8209 
2.95552 1.86532 1.73761 
2.97691 1.90771 2.19271 
2.92633 1.73717 2.26989 
2.61699 2.37519 2.69178 
2.93435 1.7718 2.27369 
2.70493 2.03653 2.70833 
2.75637 1.69498 1.42133 
2.84924 2.04915 1.47428 
2.98116 1.98251 2.19239 
2.96454 1.77405 1.86359 
2.99745 1.9996 2.07142 
2.77842 1.88581 2.61728 
2.81402 2.14644 2.56207 
2.66898 1.83379 2.72446 
2.47409 1.55931 2.76225 
2.73203 1.77619 1.35654 
2.95637 2.01669 1.70831 
2.99216 1.97132 1.87838 
2.98389 2.11928 2.13319 
2.97883 1.97331 2.20294 
2.86223 1.63585 2.35208 
2.82898 1.97096 2.55853 
2.56187 1.71227 2.77557 
2.72295 1.88035 1.31954 
2.65399 1.70235 1.30451 
2.94551 2.16991 2.27774 
2.99982 1.98496 1.98869 
2.97375 1.78869 2.08458 
2.94401 2.21789 2.24771 
2.81201 1.85779 2.56605 
2.69424 1.38584 2.37529 
2.67132 1.83254 2.722 
2.66487 1.67773 1.32613 
2.84727 2.11461 1.48135 
2.97388 2.22068 2.05344 
2.99578 2.09127 2.00984 
2.99293 1.88691 2.03606 
2.80618 2.27815 2.52221 
2.69587 1.88132 2.70829 
2.87586 1.75036 2.41298 
2.71835 1.91527 2.69051 
2.66727 1.62607 1.35585 
2.76273 1.99994 1.35329 
2.99024 1.95144 1.86933 
2.99374 2.05011 1.90019 
2.92937 2.12366 2.34783 
2.96897 2.23119 2.08751 
2.96869 1.75568 1.95585 
2.84352 1.98659 2.53693 
2.58956 1.82424 2.78837 
2.71034 1.84471 1.31348 
2.80847 2.05887 1.41442 
2.99848 2.0538 1.98821 
2.99515 2.07776 2.0602 
2.99827 1.99152 2.05823 
2.83682 2.18344 2.51584 
2.80138 1.89953 2.58966 
2.7492 1.96766 2.66156 
2.58645 1.96146 2.80907 
2.60909 1.78251 1.2373 
2.67839 1.65811 1.3497 
2.98365 2.06944 1.83383 
2.9981 2.02013 1.94177 
2.99894 1.95549 1.98812 
2.98658 1.93894 2.15141 
2.4807 2.05399 2.87522 
2.9133 1.93218 2.4016 
2.72891 1.85087 2.66817 
2.60866 1.85131 2.77938 
2.71302 1.91811 1.30365 
2.68596 2.13939 1.28584 
2.99173 1.88721 1.93882 
2.98101 2.16018 1.89064 
2.99672 2.07678 1.97431 
2.87972 1.69724 2.36663 
2.93876 2.03643 2.34265 
2.82767 2.1474 2.54151 
2.72229 1.9786 2.69126 
2.67262 1.98301 1.2602 
2.73442 1.8866 1.33085 
2.98971 2.03114 1.86033 
2.96159 2.19594 1.80776 
2.98374 2.17529 1.96101 
2.89478 2.35755 2.26744 
2.42929 1.4316 2.70188 
2.83093 1.78346 2.51251 
2.67203 1.86408 2.72795 
2.64579 1.92125 2.75945 
2.72944 1.79052 1.34882 
2.71851 1.70471 1.37028 
2.99744 2.00886 1.92906 
2.97346 2.17197 1.84898 
2.99697 1.98971 2.07712 
2.98827 1.90219 2.11731 
2.84941 1.88892 2.51591 
2.93302 1.90798 2.34785 
2.84092 1.98962 2.54106 
2.72867 1.85668 1.3303 
2.68708 1.81111 1.2984 
2.98944 2.09615 1.89158 
2.98153 1.98073 1.80967 
2.99728 1.92626 2.00071 
2.98618 2.01817 2.16468 
2.88558 1.73501 1.61851 
2.91552 1.71036 2.27916 
2.64136 1.78953 2.7378 
2.68997 1.98406 2.72366 
2.62849 1.67138 1.29501 
2.92037 2.09888 1.62166 
2.9905 2.10298 1.90882 
2.97504 1.91215 1.79607 
2.99325 1.98419 2.11492 
2.841 1.61957 2.38471 
2.67982 1.8508 2.71805 
2.8768 2.08772 2.47279 
2.55912 1.89885 2.82289 
2.67569 1.85141 1.27794 
2.66919 1.89888 1.26382 
2.98332 1.95777 1.82308 
2.99568 2.01888 1.90915 
2.97745 2.21101 2.00818 
2.92506 1.62018 2.00124 
2.86004 1.8158 1.52419 
2.69194 1.75256 2.67822 
2.73009 2.06761 2.67999 
2.70538 1.93042 2.70541 
2.67537 1.76097 1.30234 
2.76206 2.03805 1.35362 
2.99295 2.03178 1.88579 
2.9891 1.9042 1.8882 
2.98955 1.94565 1.86641 
2.97056 1.76105 2.03039 
2.94253 2.07149 2.32637 
2.941 1.79423 2.26867 
2.69524 2.03893 2.71772 
2.71856 1.97945 1.30483 
2.61702 1.51817 1.37781 
2.98938 2.015 1.85542 
2.97887 2.195 2.06159 
2.9959 2.02559 1.9132 
2.93886 2.11622 2.32408 
2.83961 1.99773 2.54319 
2.90122 2.30634 2.30653 
2.95909 2.02783 2.28172 
2.65942 1.78982 2.7218 
2.6424 1.84119 1.25026 
2.69818 1.95883 1.28526 
2.98801 2.05815 1.85694 
2.99676 2.07245 1.96496 
2.99647 1.92419 2.03606 
2.93801 2.12863 2.32185 
2.98426 1.83105 1.94807 
2.66526 1.90704 2.74081 
2.90836 1.86962 2.39736 
2.53748 2.26639 2.8001 
2.70142 1.87602 1.29812 
2.90308 2.18347 1.6117 
2.98973 2.03588 1.86162 
2.99444 1.9916 2.105 
2.99641 2.01842 2.08265 
2.7716 2.04764 2.63432 
2.92717 2.00718 2.37458 
2.88734 1.96702 2.45993 
2.90065 2.14556 2.40943 
2.63182 1.87499 1.23504 
2.65101 1.74315 1.28571 
2.98318 2.04261 1.82243 
2.98742 2.01643 1.84272 
2.98431 1.96641 1.8268 
2.99774 2.067 2.00436 
2.96201 1.74384 1.90556 
2.93114 2.26477 2.25075 
2.8293 1.83396 2.53357 
2.58713 1.91873 2.8054 
2.64453 1.65615 1.31711 
2.69646 2.32723 1.36136 
2.98116 2.12999 1.85705 
2.99415 2.04048 1.8999 
2.99373 1.94475 2.09718 
2.97717 1.96253 1.79086 
2.99508 1.94638 2.08336 
2.97277 1.83437 2.16215 
2.83482 2.05195 2.54807 
2.59859 2.06414 1.20152 
2.68151 1.82257 1.29003 
2.91292 2.21062 1.6504 
2.96008 1.96713 1.72221 
2.99409 2.07497 2.07852 
2.97371 1.77288 2.01765 
2.96122 1.86844 2.24238 
2.57977 2.12513 2.80511 
2.8173 2.25621 2.51612 
2.64258 2.02536 2.7658 
2.64745 1.88851 1.24609 
2.67737 1.93861 1.26692 
2.99728 2.04708 1.94322 
2.99817 2.06028 2.00539 
2.98773 1.95365 1.85085 
2.7365 2.19601 2.64741 
2.98952 2.0865 1.88435 
2.99968 1.99489 1.97523 
2.53313 1.87768 2.83715 
2.52373 2.32084 2.78916 
2.72918 1.92999 1.31927 
2.81619 2.14686 1.44119 
2.99973 2.02254 1.99458 
2.98297 2.17631 2.05178 
2.98664 2.08637 2.13811 
2.786 2.02275 2.61781 
2.71708 2.38443 2.58139 
2.71831 1.71927 2.63657 
2.5815 2.18495 2.79224 
2.63738 2.04731 1.2309 
2.69549 1.79162 1.31234 
2.99615 2.07321 1.95182 
2.99571 2.02499 1.91089 
2.99789 2.06466 1.99499 
2.99126 2.01373 2.13122 
2.3991 1.8466 2.90398 
2.62197 1.92128 2.77907 
2.63757 1.91985 2.76621 
2.61801 1.98479 2.78602 
2.81978 1.95985 1.42873 
2.78253 1.98534 1.37756 
2.98357 2.18001 1.98619 
2.9671 2.07991 1.75848 
2.99196 2.08286 1.90439 
2.98964 1.8565 1.99599 
2.98052 2.19588 1.98547 
2.91751 2.14512 2.37029 
2.54254 1.97429 2.83964 
2.67715 1.9814 1.26439 
2.71312 2.00061 1.29896 
2.88425 1.85857 1.55492 
2.97822 2.02137 1.79351 
2.99454 2.01007 2.10388 
2.87839 2.233 2.4173 
2.7815 1.78288 2.58491 
2.86331 1.52235 2.16293 
2.76935 2.18678 2.61092 
2.83853 1.98374 2.54461 
2.69642 1.84561 1.29917 
2.85945 2.17688 1.52035 
2.95225 1.83287 1.7445 
2.97657 2.19494 1.90882 
2.9711 2.01921 2.23789 
2.91341 1.78436 2.34524 
2.83908 1.86194 2.5262 
2.92113 2.04413 2.38675 
2.59 2.02153 2.80712 
2.61735 2.05466 2.78479 
2.75527 1.73666 1.39982 
2.83981 2.06773 1.46136 
2.98612 2.15464 1.93954 
2.92715 2.35719 2.11316 
2.88562 2.30143 2.3533 
2.91747 1.70846 2.27065 
2.76094 1.84121 2.62909 
2.8169 2.01487 2.57659 
2.62107 1.85684 2.77057 
2.62998 1.97313 1.22385 
2.68778 1.8682 1.28614 
2.98707 2.11594 1.88929 
2.9872 2.00886 1.84077 
2.98505 2.12605 2.11739 
2.96959 1.84698 2.19098 
2.99314 2.10097 2.05898 
2.72862 2.40721 2.55072 
2.88447 1.80166 2.42235 
2.5047 2.08124 2.85946 
2.68808 1.87982 1.28439 
2.87374 1.9539 1.5158 
2.96462 2.25626 2.062 
2.94914 1.96216 2.31258 
2.96494 2.15545 2.2115 
2.82397 2.13546 2.5502 
2.92215 1.94406 2.38277 
2.92743 1.91987 2.3653 
2.84711 1.99683 2.53141 
2.71322 2.15359 1.31609 
2.78254 1.89436 1.38642 
2.97532 2.1618 1.84976 
2.99193 2.11825 2.0457 
2.99634 1.96364 1.92263 
2.84892 1.94951 2.5261 
2.82225 2.06258 1.43432 
2.81585 2.4104 2.40739 
2.94005 1.97887 2.34038 
2.55641 1.94667 2.82919 
2.7917 2.08826 1.39549 
2.76204 2.06769 1.35602 
2.97192 2.07178 1.77591 
2.9876 2.05479 1.85287 
2.99683 2.0691 2.03931 
2.98215 2.04891 2.18165 
2.82865 2.10388 2.55004 
2.81753 1.79609 2.53858 
2.72026 2.14892 2.67753 
2.43864 2.2459 2.86436 
2.72762 2.0855 1.31937 
2.93 2.18706 1.68359 
2.99433 2.01845 2.10473 
2.94152 1.91 1.67528 
2.93251 1.99016 2.36101 
2.80461 2.20456 2.55746 
2.72453 1.73767 2.63737 
2.94529 2.04718 2.32282 
2.57668 1.92931 2.81391 
2.79112 2.30643 1.47063 
2.98057 1.92488 1.81879 
2.98878 1.89852 1.8904 
2.9949 2.03148 1.90412 
2.99317 1.89215 1.95547 
2.91769 2.13512 2.3736 
2.9334 2.23512 2.27107 
2.89658 2.11069 2.42883 
2.64102 1.76109 2.7294 
2.74099 2.07562 1.33275 
2.7546 1.99575 1.34382 
2.93905 2.29627 1.82565 
2.94942 1.83353 1.73375 
2.98994 1.96719 2.13761 
2.99384 1.91372 2.06955 
2.59923 2.05981 2.79834 
2.98029 2.14534 2.13379 
2.88351 2.14815 2.44436 
2.5566 1.94614 2.82903 
2.6554 2.07666 1.24861 
2.77111 2.03027 1.36402 
2.97908 2.19523 1.94259 
2.98554 2.16482 2.03928 
2.977 2.21323 2.00308 
2.89535 1.9713 2.44443 
2.94371 2.09446 2.317 
2.87354 1.73312 2.40707 
2.62599 1.84974 2.76521 
2.63065 1.96708 2.77537 
2.75725 2.03964 1.34807 
2.86478 2.06841 1.50253 
2.99521 2.06743 1.92916 
2.93976 1.86811 1.68463 
2.94039 2.18773 2.28361 
2.98561 1.98041 2.16791 
2.91617 2.02822 2.39979 
2.89446 1.98729 2.44697 
2.79945 2.13154 2.58616 
2.6222 2.14566 1.23081 
2.73514 2.07702 1.32647 
2.95572 2.1934 1.77821 
2.97411 2.19796 1.89083 
2.9811 2.18851 1.95629 
2.99664 2.05923 2.05664 
2.86129 1.87355 2.49213 
2.77071 2.13485 2.62276 
2.71197 2.01843 2.70197 
2.71989 1.99057 2.69403 
2.61743 2.0767 1.21713 
2.72475 2.08311 1.31602 
2.98656 2.09952 1.87038 
2.99066 2.11894 1.93333 
2.95905 2.10565 2.26281 
2.98123 1.91519 2.1732 
2.99417 1.94326 1.90834 
2.88022 1.9709 2.47367 
2.92625 2.127 2.35487 
2.53842 1.81932 2.82308 
2.75648 2.10052 1.35375 
2.70953 1.97209 1.29588 
2.98192 2.08607 1.8314 
2.96569 1.95625 1.744 
2.92698 2.32623 2.18513 
2.88837 2.17353 2.42508 
2.88263 2.29387 2.36688 
2.95214 1.9356 2.29882 
2.63546 2.1456 2.75828 
2.51687 2.10961 2.84902 
2.74205 1.95298 1.33131 
2.8414 2.05011 1.46191 
2.94589 2.31902 2.05924 
2.98148 2.18289 2.05692 
2.97913 1.86995 2.15616 
2.82571 2.00895 2.56403 
2.97771 2.15858 1.86237 
2.87574 2.08159 2.47585 
2.58941 2.05553 2.80592 
2.54723 1.87844 2.8281 
2.74435 2.05344 1.33435 
2.91232 2.2065 1.6464 
2.96594 2.19144 1.82589 
2.88134 2.43736 1.82124 
2.99497 2.0345 2.09406 
2.70828 2.05294 2.70395 
2.88284 2.23585 2.40616 
2.90073 1.99973 2.43438 
2.59924 2.10309 2.79391 
2.61582 2.1376 1.22422 
2.73499 2.10068 1.32944 
2.94486 2.02989 1.6739 
